x,y,z
14.46124028,0.770772067,0.41
14.69529476,0.7437687761,0.41
14.85820194,0.7232524051,0.41
14.96416326,0.7091201675,0.41
15.2620479,0.7,0.48
15.19013592,0.6900507264,0.48
15.07454175,0.6746337399,0.48
14.89682482,0.6522522442,0.48
14.64149267,0.6227941087,0.48
14.30819449,0.5893566213,0.48
13.92360118,0.5594098654,0.48
13.53821797,0.5428154801,0.48
13.20330941,0.5458632091,0.48
12.94724893,0.5671913778,0.48
12.77148874,0.6010418371,0.48
12.66354851,0.6441770585,0.48
12.6220479,0.7,0.48
12.66354851,0.7558229415,0.48
12.77148874,0.7989581629,0.48
12.94724893,0.8328086222,0.48
13.20330941,0.8541367909,0.48
13.53821797,0.8571845199,0.48
13.92360118,0.8405901346,0.48
14.30819449,0.8106433787,0.48
14.64149267,0.7772058913,0.48
14.89682482,0.7477477558,0.48
15.07454175,0.7253662601,0.48
15.19013592,0.7099492736,0.48
15.24540828,0.7,0.5731058505
15.1743878,0.6902241992,0.5731058505
15.06022733,0.6750760573,0.5731058505
14.88471607,0.6530849199,0.5731058505
14.6325557,0.6241406213,0.5731058505
14.30340251,0.5912862058,0.5731058505
13.92359877,0.5618606078,0.5731058505
13.54302193,0.5455512752,0.5731058505
13.21229238,0.5485357329,0.5731058505
12.95941801,0.5694748175,0.5731058505
12.7858184,0.6027108523,0.5731058505
12.6791392,0.6450643761,0.5731058505
12.63796278,0.7,0.5731058505
12.6791392,0.7549356239,0.5731058505
12.7858184,0.7972891477,0.5731058505
12.95941801,0.8305251825,0.5731058505
13.21229238,0.8514642671,0.5731058505
13.54302193,0.8544487248,0.5731058505
13.92359877,0.8381393922,0.5731058505
14.30340251,0.8087137942,0.5731058505
14.6325557,0.7758593787,0.5731058505
14.88471607,0.7469150801,0.5731058505
15.06022733,0.7249239427,0.5731058505
15.1743878,0.7097758008,0.5731058505
15.22528175,0.7,0.6857225068
15.15533958,0.6904340241,0.6857225068
15.04291325,0.6756110646,0.6857225068
14.87006988,0.6540920871,0.6857225068
14.62174596,0.6257693024,0.6857225068
14.29760634,0.5936201444,0.6857225068
13.92359586,0.5648249158,0.6857225068
13.54883258,0.5488603702,0.6857225068
13.22315776,0.5517682977,0.6857225068
12.97413718,0.5722367636,0.6857225068
12.80315091,0.604729618,0.6857225068
12.69799699,0.6461376357,0.6857225068
12.65721269,0.7,0.6857225068
12.69799699,0.7538623643,0.6857225068
12.80315091,0.795270382,0.6857225068
12.97413718,0.8277632364,0.6857225068
13.22315776,0.8482317023,0.6857225068
13.54883258,0.8511396298,0.6857225068
13.92359586,0.8351750842,0.6857225068
14.29760634,0.8063798556,0.6857225068
14.62174596,0.7742306976,0.6857225068
14.87006988,0.7459079129,0.6857225068
15.04291325,0.7243889354,0.6857225068
15.15533958,0.7095659759,0.6857225068
15.20132667,0.7,0.8197615248
15.13266793,0.6906837627,0.8197615248
15.02230562,0.6762478429,0.8197615248
14.85263763,0.6552908413,0.8197615248
14.60887994,0.6277077974,0.8197615248
14.2907076,0.5963980537,0.8197615248
13.92359238,0.5683531055,0.8197615248
13.55574856,0.5527989336,0.8197615248
13.23609,0.5556157731,0.8197615248
12.9916563,0.5755240974,0.8197615248
12.82378048,0.607132401,0.8197615248
12.72044198,0.6474150547,0.8197615248
12.6801244,0.7,0.8197615248
12.72044198,0.7525849453,0.8197615248
12.82378048,0.792867599,0.8197615248
12.9916563,0.8244759026,0.8197615248
13.23609,0.8443842269,0.8197615248
13.55574856,0.8472010664,0.8197615248
13.92359238,0.8316468945,0.8197615248
14.2907076,0.8036019463,0.8197615248
14.60887994,0.7722922026,0.8197615248
14.85263763,0.7447091587,0.8197615248
15.02230562,0.7237521571,0.8197615248
15.13266793,0.7093162373,0.8197615248
15.17335548,0.7,0.9762723795
15.10619535,0.6909753703,0.9762723795
14.99824309,0.6769913781,0.9762723795
14.83228285,0.6566905684,0.9762723795
14.59385691,0.6299712839,0.9762723795
14.28265228,0.5996416834,0.9762723795
13.92358833,0.5724728014,0.9762723795
13.56382401,0.5573978029,0.9762723795
13.25119035,0.5601082833,0.9762723795
13.01211251,0.5793625575,0.9762723795
12.84786862,0.609938014,0.9762723795
12.74664991,0.6489066349,0.9762723795
12.70687729,0.7,0.9762723795
12.74664991,0.7510933651,0.9762723795
12.84786862,0.790061986,0.9762723795
13.01211251,0.8206374425,0.9762723795
13.25119035,0.8398917167,0.9762723795
13.56382401,0.8426021971,0.9762723795
13.92358833,0.8275271986,0.9762723795
14.28265228,0.8003583166,0.9762723795
14.59385691,0.7700287161,0.9762723795
14.83228285,0.7433094316,0.9762723795
14.99824309,0.7230086219,0.9762723795
15.10619535,0.7090246297,0.9762723795
15.14141584,0.7,1.154988476
15.07596693,0.6913083503,1.154988476
14.97076664,0.6778404036,1.154988476
14.80904019,0.6582888842,1.154988476
14.57670247,0.6325559064,1.154988476
14.27345409,0.6033455087,1.154988476
13.9235837,0.5771769861,1.154988476
13.57304518,0.5626491445,1.154988476
13.26843309,0.565238176,1.154988476
13.03547099,0.5837456056,1.154988476
12.87537431,0.6131416781,1.154988476
12.77657614,0.6506098355,1.154988476
12.7374258,0.7,1.154988476
12.77657614,0.7493901645,1.154988476
12.87537431,0.7868583219,1.154988476
13.03547099,0.8162543944,1.154988476
13.26843309,0.834761824,1.154988476
13.57304518,0.8373508555,1.154988476
13.9235837,0.8228230139,1.154988476
14.27345409,0.7966544913,1.154988476
14.57670247,0.7674440936,1.154988476
14.80904019,0.7417111158,1.154988476
14.97076664,0.7221595964,1.154988476
15.07596693,0.7086916497,1.154988476
15.10586112,0.7,1.353932485
15.04231712,0.6916790185,1.353932485
14.94018029,0.6787855257,1.353932485
14.78316682,0.6600681048,1.353932485
14.55760641,0.6354330683,1.353932485
14.26321482,0.6074685499,1.353932485
13.92357855,0.5824136121,1.353932485
13.58331005,0.5684948572,1.353932485
13.28762744,0.5709486936,1.353932485
13.06147329,0.5886247474,1.353932485
12.90599322,0.6167079477,1.353932485
12.80988955,0.6525058123,1.353932485
12.77143192,0.7,1.353932485
12.80988955,0.7474941877,1.353932485
12.90599322,0.7832920523,1.353932485
13.06147329,0.8113752526,1.353932485
13.28762744,0.8290513064,1.353932485
13.58331005,0.8315051428,1.353932485
13.92357855,0.8175863879,1.353932485
14.26321482,0.7925314501,1.353932485
14.55760641,0.7645669317,1.353932485
14.78316682,0.7399318952,1.353932485
14.94018029,0.7212144743,1.353932485
15.04231712,0.7083209815,1.353932485
15.06738608,0.7,1.569216937
15.00590345,0.6920801318,1.569216937
14.9070817,0.6798082762,1.569216937
14.75516831,0.6619934632,1.569216937
14.53694188,0.6385465485,1.569216937
14.25213453,0.6119302408,1.569216937
13.92357297,0.588080353,1.569216937
13.59441803,0.5748207127,1.569216937
13.30839833,0.5771282497,1.569216937
13.08961131,0.5939046418,1.569216937
12.93912704,0.620567136,1.569216937
12.84593918,0.6545575167,1.569216937
12.80823116,0.7,1.569216937
12.84593918,0.7454424833,1.569216937
12.93912704,0.779432864,1.569216937
13.08961131,0.8060953582,1.569216937
13.30839833,0.8228717503,1.569216937
13.59441803,0.8251792873,1.569216937
13.92357297,0.811919647,1.569216937
14.25213453,0.7880697592,1.569216937
14.53694188,0.7614534515,1.569216937
14.75516831,0.7380065368,1.569216937
14.9070817,0.7201917238,1.569216937
15.00590345,0.7079198682,1.569216937
15.02700465,0.7,1.795168463
14.96768553,0.6925011198,1.795168463
14.87234312,0.6808817028,1.795168463
14.72578252,0.6640142207,1.795168463
14.51525345,0.6418142978,1.795168463
14.24050522,0.6166130029,1.795168463
13.92356712,0.5940278739,1.795168463
13.60607639,0.5814600064,1.795168463
13.3301984,0.583613995,1.795168463
13.11914353,0.5994461483,1.795168463
12.9739026,0.6246175422,1.795168463
12.88377504,0.6567108806,1.795168463
12.84685376,0.7,1.795168463
12.88377504,0.7432891194,1.795168463
12.9739026,0.7753824578,1.795168463
13.11914353,0.8005538517,1.795168463
13.3301984,0.816386005,1.795168463
13.60607639,0.8185399936,1.795168463
13.92356712,0.8059721261,1.795168463
14.24050522,0.7833869971,1.795168463
14.51525345,0.7581857022,1.795168463
14.72578252,0.7359857793,1.795168463
14.87234312,0.7191182972,1.795168463
14.96768553,0.7074988802,1.795168463
14.98595991,0.7,2.024831537
14.92883982,0.692929023,2.024831537
14.83703391,0.6819727618,2.024831537
14.69591403,0.6660681717,2.024831537
14.49320875,0.6451357241,2.024831537
14.22868489,0.6213726854,2.024831537
13.92356117,0.6000730905,2.024831537
13.61792626,0.5882083592,2.024831537
13.35235656,0.5902062771,2.024831537
13.14916086,0.6050786813,2.024831537
13.0092494,0.6287344816,2.024831537
12.92223239,0.6588996163,2.024831537
12.88611079,0.7,2.024831537
12.92223239,0.7411003837,2.024831537
13.0092494,0.7712655184,2.024831537
13.14916086,0.7949213187,2.024831537
13.35235656,0.8097937229,2.024831537
13.61792626,0.8117916408,2.024831537
13.92356117,0.7999269095,2.024831537
14.22868489,0.7786273146,2.024831537
14.49320875,0.7548642759,2.024831537
14.69591403,0.7339318283,2.024831537
14.83703391,0.7180272382,2.024831537
14.92883982,0.707070977,2.024831537
14.94557848,0.7,2.250783063
14.8906219,0.693350011,2.250783063
14.80229532,0.6830461883,2.250783063
14.66652824,0.6680889292,2.250783063
14.47152032,0.6484034733,2.250783063
14.21705559,0.6260554475,2.250783063
13.92355532,0.6060206113,2.250783063
13.62958463,0.5948476529,2.250783063
13.37415663,0.5966920224,2.250783063
13.17869308,0.6106201878,2.250783063
13.04402496,0.6327848879,2.250783063
12.96006824,0.6610529801,2.250783063
12.92473339,0.7,2.250783063
12.96006824,0.7389470199,2.250783063
13.04402496,0.7672151121,2.250783063
13.17869308,0.7893798122,2.250783063
13.37415663,0.8033079776,2.250783063
13.62958463,0.8051523471,2.250783063
13.92355532,0.7939793887,2.250783063
14.21705559,0.7739445525,2.250783063
14.47152032,0.7515965267,2.250783063
14.66652824,0.7319110708,2.250783063
14.80229532,0.7169538117,2.250783063
14.8906219,0.706649989,2.250783063
14.90710344,0.7,2.466067515
14.85420823,0.6937511243,2.466067515
14.76919673,0.6840689389,2.466067515
14.63852973,0.6700142876,2.466067515
14.45085579,0.6515169535,2.466067515
14.2059753,0.6305171384,2.466067515
13.92354975,0.6116873523,2.466067515
13.64069261,0.6011735084,2.466067515
13.39492752,0.6028715785,2.466067515
13.2068311,0.6159000822,2.466067515
13.07715878,0.6366440762,2.466067515
12.99611788,0.6631046846,2.466067515
12.96153264,0.7,2.466067515
12.99611788,0.7368953154,2.466067515
13.07715878,0.7633559238,2.466067515
13.2068311,0.7840999178,2.466067515
13.39492752,0.7971284215,2.466067515
13.64069261,0.7988264916,2.466067515
13.92354975,0.7883126477,2.466067515
14.2059753,0.7694828616,2.466067515
14.45085579,0.7484830465,2.466067515
14.63852973,0.7299857124,2.466067515
14.76919673,0.7159310611,2.466067515
14.85420823,0.7062488757,2.466067515
14.87154872,0.7,2.665011524
14.82055842,0.6941217925,2.665011524
14.73861038,0.685014061,2.665011524
14.61265636,0.6717935082,2.665011524
14.43175973,0.6543941155,2.665011524
14.19573602,0.6346401797,2.665011524
13.92354459,0.6169239783,2.665011524
13.65095747,0.6070192211,2.665011524
13.41412187,0.6085820961,2.665011524
13.2328334,0.620779224,2.665011524
13.10777769,0.6402103458,2.665011524
13.02943129,0.6650006614,2.665011524
12.99553876,0.7,2.665011524
13.02943129,0.7349993386,2.665011524
13.10777769,0.7597896542,2.665011524
13.2328334,0.779220776,2.665011524
13.41412187,0.7914179039,2.665011524
13.65095747,0.7929807789,2.665011524
13.92354459,0.7830760217,2.665011524
14.19573602,0.7653598203,2.665011524
14.43175973,0.7456058845,2.665011524
14.61265636,0.7282064918,2.665011524
14.73861038,0.714985939,2.665011524
14.82055842,0.7058782075,2.665011524
14.83960908,0.7,2.843727621
14.79033,0.6944547725,2.843727621
14.71113394,0.6858630864,2.843727621
14.58941371,0.673391824,2.843727621
14.41460528,0.6569787379,2.843727621
14.18653784,0.6383440049,2.843727621
13.92353997,0.621628163,2.843727621
13.66017864,0.6122705628,2.843727621
13.43136461,0.6137119888,2.843727621
13.25619187,0.6251622721,2.843727621
13.13528338,0.6434140098,2.843727621
13.05935752,0.666703862,2.843727621
13.02608726,0.7,2.843727621
13.05935752,0.733296138,2.843727621
13.13528338,0.7565859902,2.843727621
13.25619187,0.7748377279,2.843727621
13.43136461,0.7862880112,2.843727621
13.66017864,0.7877294372,2.843727621
13.92353997,0.778371837,2.843727621
14.18653784,0.7616559951,2.843727621
14.41460528,0.7430212621,2.843727621
14.58941371,0.726608176,2.843727621
14.71113394,0.7141369136,2.843727621
14.79033,0.7055452275,2.843727621
14.81163789,0.7,3.000238475
14.76385742,0.6947463801,3.000238475
14.68707141,0.6866066216,3.000238475
14.56905892,0.6747915511,3.000238475
14.39958226,0.6592422244,3.000238475
14.17848252,0.6415876346,3.000238475
13.92353591,0.6257478588,3.000238475
13.66825409,0.616869432,3.000238475
13.44646496,0.618204499,3.000238475
13.27664809,0.6290007322,3.000238475
13.15937153,0.6462196229,3.000238475
13.08556545,0.6681954422,3.000238475
13.05284015,0.7,3.000238475
13.08556545,0.7318045578,3.000238475
13.15937153,0.7537803771,3.000238475
13.27664809,0.7709992678,3.000238475
13.44646496,0.781795501,3.000238475
13.66825409,0.783130568,3.000238475
13.92353591,0.7742521412,3.000238475
14.17848252,0.7584123654,3.000238475
14.39958226,0.7407577756,3.000238475
14.56905892,0.7252084489,3.000238475
14.68707141,0.7133933784,3.000238475
14.76385742,0.7052536199,3.000238475
14.78768281,0.7,3.134277493
14.74118578,0.6949961187,3.134277493
14.66646378,0.6872434,3.134277493
14.55162667,0.6759903053,3.134277493
14.38671624,0.6611807194,3.134277493
14.17158378,0.6443655439,3.134277493
13.92353244,0.6292760486,3.134277493
13.67517007,0.6208079954,3.134277493
13.4593972,0.6220519744,3.134277493
13.2941672,0.6322880661,3.134277493
13.1800011,0.6486224058,3.134277493
13.10801044,0.6694728612,3.134277493
13.07575186,0.7,3.134277493
13.10801044,0.7305271388,3.134277493
13.1800011,0.7513775942,3.134277493
13.2941672,0.7677119339,3.134277493
13.4593972,0.7779480256,3.134277493
13.67517007,0.7791920046,3.134277493
13.92353244,0.7707239514,3.134277493
14.17158378,0.7556344561,3.134277493
14.38671624,0.7388192806,3.134277493
14.55162667,0.7240096947,3.134277493
14.66646378,0.7127566,3.134277493
14.74118578,0.7050038813,3.134277493
14.76755627,0.7,3.246894149
14.72213755,0.6952059436,3.246894149
14.6491497,0.6877784072,3.246894149
14.53698048,0.6769974725,3.246894149
14.37590649,0.6628094006,3.246894149
14.16578761,0.6466994826,3.246894149
13.92352952,0.6322403566,3.246894149
13.68098072,0.6241170904,3.246894149
13.47026259,0.6252845392,3.246894149
13.30888638,0.6350500122,3.246894149
13.19733361,0.6506411716,3.246894149
13.12686823,0.6705461208,3.246894149
13.09500178,0.7,3.246894149
13.12686823,0.7294538792,3.246894149
13.19733361,0.7493588284,3.246894149
13.30888638,0.7649499878,3.246894149
13.47026259,0.7747154608,3.246894149
13.68098072,0.7758829096,3.246894149
13.92352952,0.7677596434,3.246894149
14.16578761,0.7533005174,3.246894149
14.37590649,0.7371905994,3.246894149
14.53698048,0.7230025275,3.246894149
14.6491497,0.7122215928,3.246894149
14.72213755,0.7047940564,3.246894149
14.75091666,0.7,3.34
14.70638943,0.6953794164,3.34
14.63483527,0.6882207246,3.34
14.52487173,0.6778301482,3.34
14.36696953,0.6641559132,3.34
14.16099563,0.648629067,3.34
13.92352711,0.634691099,3.34
13.68578468,0.6268528856,3.34
13.47924555,0.627957063,3.34
13.32105546,0.6373334518,3.34
13.21166327,0.6523101867,3.34
13.14245892,0.6714334384,3.34
13.11091666,0.7,3.34
13.14245892,0.7285665616,3.34
13.21166327,0.7476898133,3.34
13.32105546,0.7626665482,3.34
13.47924555,0.772042937,3.34
13.68578468,0.7731471144,3.34
13.92352711,0.765308901,3.34
14.16099563,0.751370933,3.34
14.36696953,0.7358440868,3.34
14.52487173,0.7221698518,3.34
14.63483527,0.7117792754,3.34
14.70638943,0.7046205836,3.34
14.43222252,0.7,3.422010101
14.40073702,0.696732754,3.422010101
14.35014059,0.6916707945,3.422010101
14.27238462,0.6843235474,3.422010101
14.1607309,0.6746544031,3.422010101
14.01508536,0.6636752649,3.422010101
13.84716976,0.6538196332,3.422010101
13.67906048,0.6482771793,3.422010101
13.53301525,0.6490579507,3.422010101
13.42115797,0.6556880588,3.422010101
13.34380601,0.6662782096,3.422010101
13.29487114,0.6798003906,3.422010101
13.2725674,0.7,3.422010101
13.29487114,0.7201996094,3.422010101
13.34380601,0.7337217904,3.422010101
13.42115797,0.7443119412,3.422010101
13.53301525,0.7509420493,3.422010101
13.67906048,0.7517228207,3.422010101
13.84716976,0.7461803668,3.422010101
14.01508536,0.7363247351,3.422010101
14.1607309,0.7253455969,3.422010101
14.27238462,0.7156764526,3.422010101
14.35014059,0.7083292055,3.422010101
14.40073702,0.703267246,3.422010101
14.20687173,0.7,3.48
14.18460812,0.6976897082,3.48
14.14883104,0.6941103623,3.48
14.09384927,0.6889150741,3.48
14.01489817,0.6820779566,3.48
13.91191122,0.6743145335,3.48
13.79317696,0.6673455495,3.48
13.67430574,0.6634264428,3.48
13.57103618,0.6639785315,3.48
13.49194113,0.6686667259,3.48
13.43724504,0.6761550934,3.48
13.40264286,0.6857167192,3.48
13.38687173,0.7,3.48
13.40264286,0.7142832808,3.48
13.43724504,0.7238449066,3.48
13.49194113,0.7313332741,3.48
13.57103618,0.7360214685,3.48
13.67430574,0.7365735572,3.48
13.79317696,0.7326544505,3.48
13.91191122,0.7256854665,3.48
14.01489817,0.7179220434,3.48
14.09384927,0.7110849259,3.48
14.14883104,0.7058896377,3.48
14.18460812,0.7023102918,3.48
14.18460812,0.6988448541,3.48
14.14883104,0.6970551812,3.48
14.09384927,0.694457537,3.48
14.01489817,0.6910389783,3.48
13.91191122,0.6871572667,3.48
13.79317696,0.6836727747,3.48
13.67430574,0.6817132214,3.48
13.57103618,0.6819892657,3.48
13.49194113,0.684333363,3.48
13.43724504,0.6880775467,3.48
13.40264286,0.6928583596,3.48
13.40264286,0.7071416404,3.48
13.43724504,0.7119224533,3.48
13.49194113,0.715666637,3.48
13.57103618,0.7180107343,3.48
13.67430574,0.7182867786,3.48
13.79317696,0.7163272253,3.48
13.91191122,0.7128427333,3.48
14.01489817,0.7089610217,3.48
14.09384927,0.705542463,3.48
14.14883104,0.7029448188,3.48
14.18460812,0.7011551459,3.48
14.18460812,0.7,3.48
14.14883104,0.7,3.48
14.09384927,0.7,3.48
14.01489817,0.7,3.48
13.91191122,0.7,3.48
13.79317696,0.7,3.48
13.67430574,0.7,3.48
13.57103618,0.7,3.48
13.49194113,0.7,3.48
13.43724504,0.7,3.48
13.40264286,0.7,3.48
14.44,0.26,-0.0
14.25384665,0.26,-1.083306752e-15
14.25384665,0.26,-0.009622886928
13.92834857,0.26,-0.02564899721
13.92834857,0.26,-1.918125829e-16
13.39992635,0.26,-0.04962246862
13.39992635,0.26,2.098657408e-16
12.63748711,0.26,-0.0797395437
12.63748711,0.26,1.427869352e-16
11.70557846,0.26,-0.1079189767
11.70557846,0.26,9.714451465e-17
10.77241488,0.26,-1.880137625e-17
10.77241488,0.26,-0.1217366958
10.00785497,0.26,-4.314595236e-17
10.00785497,0.26,-0.1142632721
9.479749354,0.26,-8.32688367e-17
9.479749354,0.26,-0.08955198103
9.160864516,0.26,-2.032482596e-16
9.160864516,0.26,-0.05418826311
9.02,0.26,-0.0
9.160864516,0.26,0.05418826311
9.479749354,0.26,0.08955198103
10.00785497,0.26,0.1142632721
10.77241488,0.26,0.1217366958
11.70557846,0.26,0.1079189767
12.63748711,0.26,0.0797395437
13.39992635,0.26,0.04962246862
13.92834857,0.26,0.02564899721
14.25384665,0.26,0.009622886928
14.25384665,0.26,-0.01924577386
13.92834857,0.26,-0.05129799442
13.39992635,0.26,-0.09924493724
12.63748711,0.26,-0.1594790874
11.70557846,0.26,-0.2158379534
10.77241488,0.26,-0.2434733915
10.00785497,0.26,-0.2285265443
9.479749354,0.26,-0.1791039621
9.160864516,0.26,-0.1083765262
9.160864516,0.26,0.1083765262
9.479749354,0.26,0.1791039621
10.00785497,0.26,0.2285265443
10.77241488,0.26,0.2434733915
11.70557846,0.26,0.2158379534
12.63748711,0.26,0.1594790874
13.39992635,0.26,0.09924493724
13.92834857,0.26,0.05129799442
14.25384665,0.26,0.01924577386
14.62723301,0.5133333333,-0.02061878109
14.82666667,0.5133333333,-1.551219279e-17
14.27851365,0.5133333333,-0.05495762994
13.71239343,0.5133333333,-0.1063251419
12.89556123,0.5133333333,-0.1708564393
11.89716955,0.5133333333,-0.231235987
10.89743341,0.5133333333,-0.260842957
10.07832925,0.5133333333,-0.244829791
9.512548201,0.5133333333,-0.1918813665
9.170913891,0.5133333333,-0.1161081849
9.02,0.5133333333,-1.551219279e-17
9.170913891,0.5133333333,0.1161081849
9.512548201,0.5133333333,0.1918813665
10.07832925,0.5133333333,0.244829791
10.89743341,0.5133333333,0.260842957
11.89716955,0.5133333333,0.231235987
12.89556123,0.5133333333,0.1708564393
13.71239343,0.5133333333,0.1063251419
14.27851365,0.5133333333,0.05495762994
14.62723301,0.5133333333,0.02061878109
15.00061936,0.7666666667,-0.02199178833
15.21333333,0.7666666667,-3.102438558e-17
14.62867874,0.7666666667,-0.05861726545
14.0248605,0.7666666667,-0.1134053465
13.15363534,0.7666666667,-0.1822337911
12.08876063,0.7666666667,-0.2466340206
11.02245194,0.7666666667,-0.2782125224
10.14880352,0.7666666667,-0.2611330377
9.545347048,0.7666666667,-0.2046587709
9.180963266,0.7666666667,-0.1238398436
9.02,0.7666666667,-3.102438558e-17
9.180963266,0.7666666667,0.1238398436
9.545347048,0.7666666667,0.2046587709
10.14880352,0.7666666667,0.2611330377
11.02245194,0.7666666667,0.2782125224
12.08876063,0.7666666667,0.2466340206
13.15363534,0.7666666667,0.1822337911
14.0248605,0.7666666667,0.1134053465
14.62867874,0.7666666667,0.05861726545
15.00061936,0.7666666667,0.02199178833
15.37400572,1.02,-0.02336479557
15.6,1.02,-4.653657837e-17
14.97884383,1.02,-0.06227690097
14.33732757,1.02,-0.1204855511
13.41170945,1.02,-0.193611143
12.28035172,1.02,-0.2620320542
11.14747047,1.02,-0.2955820879
10.2192778,1.02,-0.2774362844
9.578145895,1.02,-0.2174361754
9.191012641,1.02,-0.1315715023
9.02,1.02,-4.653657837e-17
9.191012641,1.02,0.1315715023
9.578145895,1.02,0.2174361754
10.2192778,1.02,0.2774362844
11.14747047,1.02,0.2955820879
12.28035172,1.02,0.2620320542
13.41170945,1.02,0.193611143
14.33732757,1.02,0.1204855511
14.97884383,1.02,0.06227690097
15.37400572,1.02,0.02336479557
15.46685742,1.226666667,-0.01896170339
15.65026311,1.226666667,-5.919126196e-17
15.14616373,1.226666667,-0.05054082845
14.62554111,1.226666667,-0.09778006732
13.87435558,1.226666667,-0.1571251525
12.95620204,1.226666667,-0.2126521534
12.03681209,1.226666667,-0.2398796883
11.28353719,1.226666667,-0.2251534587
10.7632265,1.226666667,-0.1764603612
10.44904845,1.226666667,-0.1067768727
10.31026311,1.226666667,-5.919126196e-17
10.44904845,1.226666667,0.1067768727
10.7632265,1.226666667,0.1764603612
11.28353719,1.226666667,0.2251534587
12.03681209,1.226666667,0.2398796883
12.95620204,1.226666667,0.2126521534
13.87435558,1.226666667,0.1571251525
14.62554111,1.226666667,0.09778006732
15.14616373,1.226666667,0.05054082845
15.46685742,1.226666667,0.01896170339
15.55970912,1.433333333,-0.01455861122
15.70052622,1.433333333,-7.184594555e-17
15.31348363,1.433333333,-0.03880475592
14.91375465,1.433333333,-0.07507458352
14.33700172,1.433333333,-0.1206391621
13.63205237,1.433333333,-0.1632722526
12.92615372,1.433333333,-0.1841772888
12.34779659,1.433333333,-0.1728706331
11.9483071,1.433333333,-0.135484547
11.70708425,1.433333333,-0.08198224308
11.60052622,1.433333333,-7.184594555e-17
11.70708425,1.433333333,0.08198224308
11.9483071,1.433333333,0.135484547
12.34779659,1.433333333,0.1728706331
12.92615372,1.433333333,0.1841772888
13.63205237,1.433333333,0.1632722526
14.33700172,1.433333333,0.1206391621
14.91375465,1.433333333,0.07507458352
15.31348363,1.433333333,0.03880475592
15.55970912,1.433333333,0.01455861122
15.65256082,1.64,-0.01015551905
15.75078934,1.64,-8.450062914e-17
15.48080352,1.64,-0.0270686834
15.20196819,1.64,-0.05236909973
14.79964785,1.64,-0.08415317158
14.3079027,1.64,-0.1138923518
13.81549534,1.64,-0.1284748893
13.41205598,1.64,-0.1205878075
13.1333877,1.64,-0.09450873275
12.96512006,1.64,-0.05718761346
12.89078934,1.64,-8.450062914e-17
12.96512006,1.64,0.05718761346
13.1333877,1.64,0.09450873275
13.41205598,1.64,0.1205878075
13.81549534,1.64,0.1284748893
14.3079027,1.64,0.1138923518
14.79964785,1.64,0.08415317158
15.20196819,1.64,0.05236909973
15.48080352,1.64,0.0270686834
15.65256082,1.64,0.01015551905
15.70829947,1.8,-0.00926779885
15.79794158,1.8,-9.429780353e-17
15.55155593,1.8,-0.02470253975
15.29709431,1.8,-0.04779138122
14.92994184,1.8,-0.07679712511
14.4811814,1.8,-0.1039367267
14.03181665,1.8,-0.1172445668
13.66364296,1.8,-0.1100469152
13.4093338,1.8,-0.08624747989
13.25577487,1.8,-0.0521886962
13.18794158,1.8,-9.429780353e-17
13.25577487,1.8,0.0521886962
13.4093338,1.8,0.08624747989
13.66364296,1.8,0.1100469152
14.03181665,1.8,0.1172445668
14.4811814,1.8,0.1039367267
14.92994184,1.8,0.07679712511
15.29709431,1.8,0.04779138122
15.55155593,1.8,0.02470253975
15.70829947,1.8,0.00926779885
15.76403813,1.96,-0.008380078654
15.84509383,1.96,-1.040949779e-16
15.62230833,1.96,-0.02233639609
15.39222043,1.96,-0.04321366271
15.06023582,1.96,-0.06944107865
14.6544601,1.96,-0.0939811015
14.24813795,1.96,-0.1060142443
13.91522994,1.96,-0.09950602296
13.6852799,1.96,-0.07798622703
13.54642967,1.96,-0.04718977894
13.48509383,1.96,-1.040949779e-16
13.54642967,1.96,0.04718977894
13.6852799,1.96,0.07798622703
13.91522994,1.96,0.09950602296
14.24813795,1.96,0.1060142443
14.6544601,1.96,0.0939811015
15.06023582,1.96,0.06944107865
15.39222043,1.96,0.04321366271
15.62230833,1.96,0.02233639609
15.76403813,1.96,0.008380078654
15.88340945,2.373622724,-0.007251306615
15.95710012,2.373622724,-1.294220652e-16
15.75456283,2.373622724,-0.01932760791
15.54540196,2.373622724,-0.03739238893
15.24363595,2.373622724,-0.06008707397
14.87483329,2.373622724,-0.08132586147
14.50557385,2.373622724,-0.09175747782
14.20303497,2.373622724,-0.08617232229
13.99398417,2.373622724,-0.06763025547
13.86752521,2.373622724,-0.04110381671
13.81058282,2.373622724,-1.294220652e-16
13.86752521,2.373622724,0.04110381671
13.99398417,2.373622724,0.06763025547
14.20303497,2.373622724,0.08617232229
14.50557385,2.373622724,0.09175747782
14.87483329,2.373622724,0.08132586147
15.24363595,2.373622724,0.06008707397
15.54540196,2.373622724,0.03739238893
15.75456283,2.373622724,0.01932760791
15.88340945,2.373622724,0.007251306615
16.01496974,2.829480342,-0.006007275997
16.08054334,2.829480342,-1.573352938e-16
15.9003218,2.829480342,-0.01601159326
15.7142248,2.829480342,-0.0309767066
15.44576301,2.829480342,-0.04977793465
15.11770871,2.829480342,-0.06737839863
14.78929645,2.829480342,-0.07604495716
14.52022768,2.829480342,-0.07147712139
14.33421014,2.829480342,-0.05621683872
14.22140773,2.829480342,-0.03439641868
14.16930739,2.829480342,-1.573352938e-16
14.22140773,2.829480342,0.03439641868
14.33421014,2.829480342,0.05621683872
14.52022768,2.829480342,0.07147712139
14.78929645,2.829480342,0.07604495716
15.11770871,2.829480342,0.06737839863
15.44576301,2.829480342,0.04977793465
15.7142248,2.829480342,0.0309767066
15.9003218,2.829480342,0.01601159326
16.01496974,2.829480342,0.006007275997
16.1370972,3.252653119,-0.004852441963
16.19513573,3.252653119,-1.832471532e-16
16.03562989,3.252653119,-0.01293333576
15.8709431,3.252653119,-0.02502102658
15.63339763,3.252653119,-0.04020795721
15.34317005,3.252653119,-0.05443096426
15.05267624,3.252653119,-0.06145901904
14.81467778,3.252653119,-0.05783556154
14.65004203,3.252653119,-0.04562176018
14.54991698,3.252653119,-0.02816993887
14.50231153,3.252653119,-1.832471532e-16
14.54991698,3.252653119,0.02816993887
14.65004203,3.252653119,0.04562176018
14.81467778,3.252653119,0.05783556154
15.05267624,3.252653119,0.06145901904
15.34317005,3.252653119,0.05443096426
15.63339763,3.252653119,0.04020795721
15.8709431,3.252653119,0.02502102658
16.03562989,3.252653119,0.01293333576
16.1370972,3.252653119,0.004852441963
16.233681,3.587316854,-0.003939148172
16.28576045,3.587316854,-2.037393967e-16
16.14263751,3.587316854,-0.01049891369
15.99488286,3.587316854,-0.0203110116
15.78178738,3.587316854,-0.0326395961
15.52147485,3.587316854,-0.04419156095
15.26096861,3.587316854,-0.04992381455
15.04754193,3.587316854,-0.04704721312
14.89981584,3.587316854,-0.03724270382
14.80971662,3.587316854,-0.02324576346
14.76566592,3.587316854,-2.037393967e-16
14.80971662,3.587316854,0.02324576346
14.89981584,3.587316854,0.03724270382
15.04754193,3.587316854,0.04704721312
15.26096861,3.587316854,0.04992381455
15.52147485,3.587316854,0.04419156095
15.78178738,3.587316854,0.0326395961
15.99488286,3.587316854,0.0203110116
16.14263751,3.587316854,0.01049891369
16.233681,3.587316854,0.003939148172
16.30083324,3.82,-0.003304158327
16.3487695,3.82,-2.179871302e-16
16.21703718,3.82,-0.008806322208
16.08105501,3.82,-0.0170362585
15.88495898,3.82,-0.02737750794
15.64544561,3.82,-0.03707236538
15.40578898,3.82,-0.04190368152
15.20944643,3.82,-0.03954635004
15.07347719,3.82,-0.03141695997
14.99034867,3.82,-0.01982211008
14.9487695,3.82,-2.179871302e-16
14.99034867,3.82,0.01982211008
15.07347719,3.82,0.03141695997
15.20944643,3.82,0.03954635004
15.40578898,3.82,0.04190368152
15.64544561,3.82,0.03707236538
15.88495898,3.82,0.02737750794
16.08105501,3.82,0.0170362585
16.21703718,3.82,0.008806322208
16.30083324,3.82,0.003304158327
16.30083324,3.82,-0.001652079164
16.21703718,3.82,-0.004403161104
16.08105501,3.82,-0.00851812925
15.88495898,3.82,-0.01368875397
15.64544561,3.82,-0.01853618269
15.40578898,3.82,-0.02095184076
15.20944643,3.82,-0.01977317502
15.07347719,3.82,-0.01570847998
14.99034867,3.82,-0.009911055039
14.99034867,3.82,0.009911055039
15.07347719,3.82,0.01570847998
15.20944643,3.82,0.01977317502
15.40578898,3.82,0.02095184076
15.64544561,3.82,0.01853618269
15.88495898,3.82,0.01368875397
16.08105501,3.82,0.00851812925
16.21703718,3.82,0.004403161104
16.30083324,3.82,0.001652079164
16.30083324,3.82,-1.718940254e-16
16.21703718,3.82,-2.085074985e-16
16.08105501,3.82,-2.543777103e-16
15.88495898,3.82,-2.478857266e-16
15.64544561,3.82,-2.35334365e-16
15.40578898,3.82,-2.223856037e-16
15.20944643,3.82,-2.083807596e-16
15.07347719,3.82,-2.110743619e-16
14.99034867,3.82,-2.348661006e-16
-1.850371708e-17,0.0,1.850371708e-17
0.2363452746,5.13992141e-19,-0.1328545637
0.2363452746,-0.03413115291,-0.1278533379
0.2363452746,-0.06549926587,-0.1139061011
0.2363452746,-0.09259751437,-0.09259751437
0.2363452746,-0.1139061011,-0.06549926587
0.2363452746,-0.1278533379,-0.03413115291
0.2363452746,-0.1328545637,1.182181924e-17
0.2363452746,-0.1278533379,0.03413115291
0.2363452746,-0.1139061011,0.06549926587
0.2363452746,-0.09259751437,0.09259751437
0.2363452746,-0.06549926587,0.1139061011
0.2363452746,-0.03413115291,0.1278533379
0.2363452746,-9.868649108e-18,0.1328545637
0.2363452746,0.03413115291,0.1278533379
0.2363452746,0.06549926587,0.1139061011
0.2363452746,0.09259751437,0.09259751437
0.2363452746,0.1139061011,0.06549926587
0.2363452746,0.1278533379,0.03413115291
0.2363452746,0.1328545637,2.2748456e-18
0.2363452746,0.1278533379,-0.03413115291
0.2363452746,0.1139061011,-0.06549926587
0.2363452746,0.09259751437,-0.09259751437
0.2363452746,0.06549926587,-0.1139061011
0.2363452746,0.03413115291,-0.1278533379
0.5527962802,1.027984282e-18,-0.2258148584
0.5527962802,-0.05950270731,-0.2176066444
0.5527962802,-0.1132258548,-0.1945460327
0.5527962802,-0.1589790694,-0.1589790694
0.5527962802,-0.1945460327,-0.1132258548
0.5527962802,-0.2176066444,-0.05950270731
0.5527962802,-0.2258148584,8.223874256e-18
0.5527962802,-0.2176066444,0.05950270731
0.5527962802,-0.1945460327,0.1132258548
0.5527962802,-0.1589790694,0.1589790694
0.5527962802,-0.1132258548,0.1945460327
0.5527962802,-0.05950270731,0.2176066444
0.5527962802,-7.401486831e-18,0.2258148584
0.5527962802,0.05950270731,0.2176066444
0.5527962802,0.1132258548,0.1945460327
0.5527962802,0.1589790694,0.1589790694
0.5527962802,0.1945460327,0.1132258548
0.5527962802,0.2176066444,0.05950270731
0.5527962802,0.2258148584,-5.47315555e-18
0.5527962802,0.2176066444,-0.05950270731
0.5527962802,0.1945460327,-0.1132258548
0.5527962802,0.1589790694,-0.1589790694
0.5527962802,0.1132258548,-0.1945460327
0.5527962802,0.05950270731,-0.2176066444
0.82,0.0,-0.28
0.82,-0.0743991459,-0.2699909403
0.82,-0.1412753512,-0.2417487867
0.82,-0.1979510776,-0.1979510776
0.82,-0.2417487867,-0.1412753512
0.82,-0.2699909403,-0.0743991459
0.82,-0.28,-0.0
0.82,-0.2699909403,0.0743991459
0.82,-0.2417487867,0.1412753512
0.82,-0.1979510776,0.1979510776
0.82,-0.1412753512,0.2417487867
0.82,-0.0743991459,0.2699909403
0.82,-1.027162637e-33,0.28
0.82,0.0743991459,0.2699909403
0.82,0.1412753512,0.2417487867
0.82,0.1979510776,0.1979510776
0.82,0.2417487867,0.1412753512
0.82,0.2699909403,0.0743991459
0.82,0.28,-0.0
0.82,0.2699909403,-0.0743991459
0.82,0.2417487867,-0.1412753512
0.82,0.1979510776,-0.1979510776
0.82,0.1412753512,-0.2417487867
0.82,0.0743991459,-0.2699909403
0.9534265975,-0.05,-0.537211764
0.9551025325,-0.1512847306,-0.5142442553
0.9574700864,-0.2403184068,-0.4560158328
0.9602995534,-0.3137526569,-0.369797877
0.9632631979,-0.3685129113,-0.262272116
0.9656411659,-0.402619808,-0.1377616683
0.9666155738,-0.4143677869,-1.301042607e-17
0.9656411659,-0.402619808,0.1377616683
0.9632631979,-0.3685129113,0.262272116
0.9602995534,-0.3137526569,0.369797877
0.9574700864,-0.2403184068,0.4560158328
0.9551025325,-0.1512847306,0.5142442553
0.9534265975,-0.05,0.537211764
0.9525893687,0.0530367775,0.519854975
0.9524074584,0.1464120635,0.4659424907
0.9526148603,0.22540569,0.3814509101
0.9529645948,0.2856055199,0.2721987738
0.9532857892,0.3238315391,0.1433723879
0.9534265975,0.337211764,5.577675483e-18
0.9532857892,0.3238315391,-0.1433723879
0.9529645948,0.2856055199,-0.2721987738
0.9526148603,0.22540569,-0.3814509101
0.9524074584,0.1464120635,-0.4659424907
0.9525893687,0.0530367775,-0.519854975
1.08,-0.1,-0.82
1.08,-0.2381698424,-0.7906877537
1.08,-0.3623685094,-0.7079785896
1.08,-0.4676234298,-0.57971387
1.08,-0.5489620325,-0.4137349571
1.08,-0.6014117463,-0.217883213
1.08,-0.62,-0.0
1.08,-0.6014117463,0.217883213
1.08,-0.5489620325,0.4137349571
1.08,-0.4676234298,0.57971387
1.08,-0.3623685094,0.7079785896
1.08,-0.2381698424,0.7906877537
1.08,-0.1,0.82
1.08,0.03816984239,0.7906877537
1.08,0.1623685094,0.7079785896
1.08,0.2676234298,0.57971387
1.08,0.3489620325,0.4137349571
1.08,0.4014117463,0.217883213
1.08,0.42,-0.0
1.08,0.4014117463,-0.217883213
1.08,0.3489620325,-0.4137349571
1.08,0.2676234298,-0.57971387
1.08,0.1623685094,-0.7079785896
1.08,0.03816984239,-0.7906877537
1.380125079,-0.157037037,-0.8860877797
1.377991288,-0.3343065953,-0.8597658316
1.375004487,-0.4965266436,-0.7761434838
1.371477173,-0.636919648,-0.6406524015
1.367831885,-0.7483040869,-0.4595656055
1.364931348,-0.8218824877,-0.2425215389
1.363748331,-0.8484533902,1.233581138e-17
1.364931348,-0.8218824877,0.2425215389
1.367831885,-0.7483040869,0.4595656055
1.371477173,-0.636919648,0.6406524015
1.375004487,-0.4965266436,0.7761434838
1.377991288,-0.3343065953,0.8597658316
1.380125079,-0.157037037,0.8860877797
1.381200732,0.01775909091,0.8517947963
1.381442571,0.1738267695,0.7620408828
1.381182288,0.3062903468,0.6240971743
1.380730072,0.4098424442,0.4454630046
1.380310108,0.4774487774,0.2345505036
1.380125079,0.5016433353,-1.652644587e-18
1.380310108,0.4774487774,-0.2345505036
1.380730072,0.4098424442,-0.4454630046
1.381182288,0.3062903468,-0.6240971743
1.381442571,0.1738267695,-0.7620408828
1.381200732,0.01775909091,-0.8517947963
1.793366951,-0.262962963,-0.9459938487
1.792078808,-0.4915473338,-0.9161715713
1.790314192,-0.6989822437,-0.8250518454
1.788289727,-0.8769537441,-0.6794507936
1.786267853,-1.016787752,-0.4867800603
1.784694277,-1.108369645,-0.2568333777
1.784060524,-1.141224666,6.167905692e-18
1.784694277,-1.108369645,0.2568333777
1.786267853,-1.016787752,0.4867800603
1.788289727,-0.8769537441,0.6794507936
1.790314192,-0.6989822437,0.8250518454
1.792078808,-0.4915473338,0.9161715713
1.793366951,-0.262962963,0.9459938487
1.794029849,-0.03621070271,0.9102041134
1.794190132,0.1666378852,0.8144940353
1.79403828,0.3386338672,0.6670568426
1.793755599,0.4724735485,0.4762222502
1.793486683,0.5594341904,0.2508659199
1.793366951,0.5904382931,-6.61057835e-18
1.793486683,0.5594341904,-0.2508659199
1.793755599,0.4724735485,-0.4762222502
1.79403828,0.3386338672,-0.6670568426
1.794190132,0.1666378852,-0.8144940353
1.794029849,-0.03621070271,-0.9102041134
2.16,-0.32,-1.0
2.16,-0.5803970106,-0.9642533582
2.16,-0.8144637292,-0.863388524
2.16,-1.012828772,-0.7069681342
2.16,-1.166120753,-0.5045548257
2.16,-1.264968291,-0.2657112354
2.16,-1.3,-0.0
2.16,-1.264968291,0.2657112354
2.16,-1.166120753,0.5045548257
2.16,-1.012828772,0.7069681342
2.16,-0.8144637292,0.863388524
2.16,-0.5803970106,0.9642533582
2.16,-0.32,1.0
2.16,-0.05960298935,0.9642533582
2.16,0.1744637292,0.863388524
2.16,0.3728287715,0.7069681342
2.16,0.5261207535,0.5045548257
2.16,0.624968291,0.2657112354
2.16,0.66,-2.054325274e-33
2.16,0.624968291,-0.2657112354
2.16,0.5261207535,-0.5045548257
2.16,0.3728287715,-0.7069681342
2.16,0.1744637292,-0.863388524
2.16,-0.05960298935,-0.9642533582
2.451866505,-0.3096296296,-1.03517648
2.452126914,-0.5781659244,-0.9968693574
2.452412439,-0.8190562228,-0.8914624512
2.45268408,-1.022768502,-0.7291111155
2.452905892,-1.179810677,-0.5198987019
2.453054143,-1.280850409,-0.2736205508
2.453108154,-1.316595298,-6.424901763e-19
2.453054143,-1.280850409,0.2736205508
2.452905892,-1.179810677,0.5198987019
2.45268408,-1.022768502,0.7291111155
2.452412439,-0.8190562228,0.8914624512
2.452126914,-0.5781659244,0.9968693574
2.451866505,-0.3096296296,1.03517648
2.451665155,-0.04029947421,0.9995119444
2.451536575,0.2026043403,0.8961377974
2.451489419,0.4089976928,0.7345995654
2.451521022,0.5688107418,0.5245740481
2.451583441,0.6720307637,0.2762631378
2.451617417,0.7086593142,7.918921981e-18
2.451583441,0.6720307637,-0.2762631378
2.451521022,0.5688107418,-0.5245740481
2.451489419,0.4089976928,-0.7345995654
2.451536575,0.2026043403,-0.8961377974
2.451665155,-0.04029947421,-0.9995119444
2.745897389,-0.2903703704,-1.051808433
2.745975711,-0.5629293457,-1.014238672
2.74600433,-0.8079957354,-0.9090030088
2.746025997,-1.016247912,-0.7452537051
2.746071159,-1.178127839,-0.5323487051
2.746121046,-1.283131851,-0.280468684
2.746144581,-1.320519871,-1.284980353e-18
2.746121046,-1.283131851,0.280468684
2.746071159,-1.178127839,0.5323487051
2.746025997,-1.016247912,0.7452537051
2.74600433,-0.8079957354,0.9090030088
2.745975711,-0.5629293457,1.014238672
2.745897389,-0.2903703704,1.051808433
2.745744832,-0.01741446473,1.015559965
2.745566398,0.228658683,0.9113406819
2.745428666,0.438251396,0.74799793
2.745378724,0.6015167606,0.5346863782
2.745385696,0.7076109169,0.2817899775
2.745399212,0.7454407682,4.269331851e-18
2.745385696,0.7076109169,-0.2817899775
2.745378724,0.6015167606,-0.5346863782
2.745428666,0.438251396,-0.74799793
2.745566398,0.228658683,-0.9113406819
2.745744832,-0.01741446473,-1.015559965
3.04,-0.28,-1.07
3.04,-0.5563396848,-1.031751093
3.04,-0.8047370187,-0.9238257206
3.04,-1.01524686,-0.7564559036
3.04,-1.177924065,-0.5398736635
3.04,-1.282823493,-0.2843110218
3.04,-1.32,-0.0
3.04,-1.282823493,0.2843110218
3.04,-1.177924065,0.5398736635
3.04,-1.01524686,0.7564559036
3.04,-0.8047370187,0.9238257206
3.04,-0.5563396848,1.031751093
3.04,-0.28,1.07
3.04,-0.003660315229,1.031751093
3.04,0.2447370187,0.9238257206
3.04,0.4552468596,0.7564559036
3.04,0.6179240649,0.5398736635
3.04,0.7228234925,0.2843110218
3.04,0.76,1.283953296e-34
3.04,0.7228234925,-0.2843110218
3.04,0.6179240649,-0.5398736635
3.04,0.4552468596,-0.7564559036
3.04,0.2447370187,-0.9238257206
3.04,-0.003660315229,-1.031751093
3.330865138,-0.1607407407,-1.089187891
3.33069438,-0.4675975274,-1.053721686
3.331027784,-0.7451051664,-0.9426964755
3.33141697,-0.9790239967,-0.7698428468
3.331522,-1.156232358,-0.548238894
3.331436695,-1.268080591,-0.2883527365
3.331363314,-1.307037037,2.569960705e-19
3.331436695,-1.268080591,0.2883527365
3.331522,-1.156232358,0.548238894
3.33141697,-0.9790239967,0.7698428468
3.331027784,-0.7451051664,0.9426964755
3.33069438,-0.4675975274,1.053721686
3.330865138,-0.1607407407,1.089187891
3.331966338,0.141943828,1.040451747
3.334335889,0.4091546618,0.9192188909
3.338289602,0.6299818725,0.7422822041
3.343699877,0.7945146927,0.5247613095
3.348665463,0.896838838,0.2750827974
3.350841694,0.9320391451,-3.126252678e-17
3.348665463,0.896838838,-0.2750827974
3.343699877,0.7945146927,-0.5247613095
3.338289602,0.6299818725,-0.7422822041
3.334335889,0.4091546618,-0.9192188909
3.331966338,0.141943828,-1.040451747
3.634991881,0.06074074074,-1.097927279
3.634546603,-0.2975415484,-1.066978031
3.634985121,-0.6235813632,-0.9566105114
3.635535185,-0.8989346729,-0.7818860199
3.635613761,-1.106880695,-0.5570442375
3.635394674,-1.237591639,-0.2930383689
3.635240969,-1.282962963,-1.413478388e-18
3.635394674,-1.237591639,0.2930383689
3.635613761,-1.106880695,0.5570442375
3.635535185,-0.8989346729,0.7818860199
3.634985121,-0.6235813632,0.9566105114
3.634546603,-0.2975415484,1.066978031
3.634991881,0.06074074074,1.097927279
3.637090518,0.410678594,1.040438153
3.641601332,0.7161247985,0.9096553422
3.64928045,0.9652948689,0.7267647344
3.659969514,1.147889809,0.5100890683
3.669852209,1.259552578,0.2664984907
3.67419773,1.297411623,-6.190531184e-17
3.669852209,1.259552578,-0.2664984907
3.659969514,1.147889809,-0.5100890683
3.64928045,0.9652948689,-0.7267647344
3.641601332,0.7161247985,-0.9096553422
3.637090518,0.410678594,-1.040438153
3.98,0.18,-1.1
3.98,-0.2052812913,-1.060678694
3.98,-0.5516044973,-0.9497273764
3.98,-0.8451037946,-0.7776649476
3.98,-1.07191336,-0.5550103083
3.98,-1.218167369,-0.2922823589
3.98,-1.27,-0.0
3.98,-1.218167369,0.2922823589
3.98,-1.07191336,0.5550103083
3.98,-0.8451037946,0.7776649476
3.98,-0.5516044973,0.9497273764
3.98,-0.2052812913,1.060678694
3.98,0.18,1.1
3.98,0.5652812913,1.060678694
3.98,0.9116044973,0.9497273764
3.98,1.205103795,0.7776649476
3.98,1.43191336,0.5550103083
3.98,1.578167369,0.2922823589
3.98,1.63,-1.643460219e-32
3.98,1.578167369,-0.2922823589
3.98,1.43191336,-0.5550103083
3.98,1.205103795,-0.7776649476
3.98,0.9116044973,-0.9497273764
3.98,0.5652812913,-1.060678694
4.263136428,0.1855393586,-1.1
4.263413986,-0.1964873139,-1.054083366
4.263167233,-0.5367461301,-0.942709237
4.262906364,-0.8257882969,-0.7728959536
4.263005045,-1.052840268,-0.5522913151
4.263290833,-1.201829481,-0.2910609631
4.263454756,-1.255358622,1.092420615e-18
4.263290833,-1.201829481,0.2910609631
4.263005045,-1.052840268,0.5522913151
4.262906364,-0.8257882969,0.7728959536
4.263167233,-0.5367461301,0.942709237
4.263413986,-0.1964873139,1.054083366
4.263136428,0.1855393586,1.1
4.261836741,0.5741380584,1.074976659
4.259066616,0.9306119605,0.9796742952
4.254390121,1.240260778,0.8162897176
4.247918124,1.487250566,0.5892563733
4.241948691,1.651212746,0.3119542569
4.239326688,1.71064508,5.04755239e-17
4.241948691,1.651212746,-0.3119542569
4.247918124,1.487250566,-0.5892563733
4.254390121,1.240260778,-0.8162897176
4.259066616,0.9306119605,-0.9796742952
4.261836741,0.5741380584,-1.074976659
4.740121522,0.1998250729,-1.1
4.740385677,-0.1739755311,-1.050749973
4.740062423,-0.5052945923,-0.9401469689
4.739845765,-0.7877541525,-0.7723764765
4.740222567,-1.012698823,-0.5528123205
4.74085113,-1.16236349,-0.2915816629
4.741182615,-1.216705611,8.092004553e-19
4.74085113,-1.16236349,0.2915816629
4.740222567,-1.012698823,0.5528123205
4.739845765,-0.7877541525,0.7723764765
4.740062423,-0.5052945923,0.9401469689
4.740385677,-0.1739755311,1.050749973
4.740121522,0.1998250729,1.1
4.738632566,0.5840375483,1.08383425
4.735507866,0.941038147,0.9986806885
4.730393093,1.256117795,0.8410899733
4.723484124,1.512599447,0.61134604
4.71717767,1.685934169,0.3246659392
4.714420648,1.749605056,8.325859612e-17
4.71717767,1.685934169,-0.3246659392
4.723484124,1.512599447,-0.61134604
4.730393093,1.256117795,-0.8410899733
4.735507866,0.941038147,-0.9986806885
4.738632566,0.5840375483,-1.08383425
5.334018798,0.2193586006,-1.1
5.334097653,-0.1431321763,-1.050040422
5.333815349,-0.4640046707,-0.9407706772
5.333817108,-0.7385927155,-0.7745106049
5.33452407,-0.9594138163,-0.555173124
5.335461047,-1.107720171,-0.29304348
5.335928766,-1.161947652,-2.427601366e-19
5.335461047,-1.107720171,0.29304348
5.33452407,-0.9594138163,0.555173124
5.333817108,-0.7385927155,0.7745106049
5.333815349,-0.4640046707,0.9407706772
5.334097653,-0.1431321763,1.050040422
5.334018798,0.2193586006,1.1
5.333044677,0.5936938145,1.087656097
5.331085647,0.943771827,1.007321488
5.32816318,1.255434781,0.8526354694
5.32452565,1.512069004,0.6217239345
5.321329026,1.687237557,0.3306591555
5.319956181,1.752047687,9.88695829e-17
5.321329026,1.687237557,-0.3306591555
5.32452565,1.512069004,-0.6217239345
5.32816318,1.255434781,-0.8526354694
5.331085647,0.943771827,-1.007321488
5.333044677,0.5936938145,-1.087656097
5.96789177,0.2406413994,-1.1
5.967732494,-0.109343483,-1.051316614
5.96755579,-0.4196311525,-0.943310467
5.967819298,-0.68589534,-0.7777024275
5.968781061,-0.9009100394,-0.557973525
5.969900738,-1.045850298,-0.2946454363
5.970438393,-1.098991427,-1.456560819e-18
5.969900738,-1.045850298,0.2946454363
5.968781061,-0.9009100394,0.557973525
5.967819298,-0.68589534,0.7777024275
5.96755579,-0.4196311525,0.943310467
5.967732494,-0.109343483,1.051316614
5.96789177,0.2406413994,1.1
5.967730275,0.6018209102,1.086846833
5.967561855,0.9397017708,1.006171625
5.96785465,1.240971672,0.8514959604
5.968870351,1.489768237,0.6208346826
5.970044849,1.660028827,0.3301756558
5.970607583,1.723140736,9.782885045e-17
5.970044849,1.660028827,-0.3301756558
5.968870351,1.489768237,-0.6208346826
5.96785465,1.240971672,-0.8514959604
5.967561855,0.9397017708,-1.006171625
5.967730275,0.6018209102,-1.086846833
6.564803951,0.2601749271,-1.1
6.564472779,-0.07799568476,-1.053940454
6.564413527,-0.3789288246,-0.9464964434
6.56485124,-0.6372533801,-0.7803560331
6.565865042,-0.8451122835,-0.5598133231
6.566950357,-0.9847046452,-0.2955865536
6.567456684,-1.03574362,-2.225301252e-18
6.566950357,-0.9847046452,0.2955865536
6.565865042,-0.8451122835,0.5598133231
6.56485124,-0.6372533801,0.7803560331
6.564413527,-0.3789288246,0.9464964434
6.564472779,-0.07799568476,1.053940454
6.564803951,0.2601749271,1.1
6.565346561,0.6071328886,1.08181109
6.566698385,0.9297167487,0.9958060306
6.569621766,1.215488402,0.8382412007
6.574345876,1.449806147,0.6091229103
6.578967226,1.609213895,0.3234571899
6.581049155,1.668051963,8.0656765e-17
6.578967226,1.609213895,-0.3234571899
6.574345876,1.449806147,-0.6091229103
6.569621766,1.215488402,-0.8382412007
6.566698385,0.9297167487,-0.9958060306
6.565346561,0.6071328886,-1.08181109
7.047818856,0.2744606414,-1.1
7.047501088,-0.05447501497,-1.057273846
7.047518337,-0.3486524739,-0.9490587115
7.047911839,-0.6002581899,-0.7808755102
7.048647521,-0.7999453397,-0.5592923177
7.04939006,-0.9322339868,-0.2950658539
7.049728824,-0.9801109168,-1.942081093e-18
7.04939006,-0.9322339868,0.2950658539
7.048647521,-0.7999453397,0.5592923177
7.047911839,-0.6002581899,0.7808755102
7.047518337,-0.3486524739,0.9490587115
7.047501088,-0.05447501497,1.057273846
7.047818856,0.2744606414,1.1
7.048550735,0.6083438032,1.0729535
7.050257135,0.9147055308,0.9767996373
7.053618794,1.181744907,0.8134409449
7.058779876,1.396291734,0.5870332435
7.063738246,1.539698679,0.3107455076
7.065955194,1.591949131,4.787369277e-17
7.063738246,1.539698679,-0.3107455076
7.058779876,1.396291734,-0.5870332435
7.053618794,1.181744907,-0.8134409449
7.050257135,0.9147055308,-0.9767996373
7.048550735,0.6083438032,-1.0729535
7.34,0.28,-1.1
7.34,-0.04416770713,-1.060678694
7.34,-0.3355568874,-0.9497273764
7.34,-0.5825011237,-0.7776649476
7.34,-0.7733339992,-0.5550103083
7.34,-0.896389097,-0.2922823589
7.34,-0.94,-0.0
7.34,-0.896389097,0.2922823589
7.34,-0.7733339992,0.5550103083
7.34,-0.5825011237,0.7776649476
7.34,-0.3355568874,0.9497273764
7.34,-0.04416770713,1.060678694
7.34,0.28,1.1
7.34,0.6041677071,1.060678694
7.34,0.8955568874,0.9497273764
7.34,1.142501124,0.7776649476
7.34,1.333333999,0.5550103083
7.34,1.456389097,0.2922823589
7.34,1.5,-0.0
7.34,1.456389097,-0.2922823589
7.34,1.333333999,-0.5550103083
7.34,1.142501124,-0.7776649476
7.34,0.8955568874,-0.9497273764
7.34,0.6041677071,-1.060678694
7.725631787,0.2437037037,-1.081703795
7.726160302,-0.05904711192,-1.046397128
7.726075551,-0.3327402725,-0.9332300688
7.725441119,-0.5615589951,-0.75891701
7.724396898,-0.7316176059,-0.5388299075
7.723387995,-0.8367548669,-0.2829709772
7.722935824,-0.8727406492,1.027984282e-17
7.723387995,-0.8367548669,0.2829709772
7.724396898,-0.7316176059,0.5388299075
7.725441119,-0.5615589951,0.75891701
