x,y,z
3.403779757,0.1690007151,-0.07389090909
3.392048459,0.1650682471,-0.0
3.155827896,0.1477521632,-0.07389090909
3.127605524,0.1426023784,-0.0
2.899687447,0.1295496809,-0.07389090909
2.854438364,0.1233237854,-0.0
2.586040167,0.1093130631,-0.0
2.64801137,0.1163714322,-0.07389090909
2.335028833,0.1020385708,-0.0
2.412635373,0.1096124708,-0.07389090909
2.110952778,0.1019200852,-0.0
2.202520562,0.1096706754,-0.07389090909
1.919177152,0.1083343406,-0.0
2.022707161,0.1159492163,-0.07389090909
1.760995471,0.1199279359,-0.0
1.874417017,0.1271558444,-0.07389090909
1.63458985,0.1350986375,-0.0
1.755952655,0.1417616284,-0.07389090909
1.53629601,0.1524201945,-0.0
1.663883652,0.1584044995,-0.07389090909
1.461733778,0.1708438292,-0.0
1.59410841,0.1760806966,-0.07389090909
1.406629354,0.1897511364,-0.0
1.542625667,0.1941903891,-0.07389090909
1.367361561,0.2089253471,-0.0
1.506040695,0.2125009828,-0.07389090909
1.34135271,0.2283852661,-0.0
1.48191104,0.2309841535,-0.07389090909
1.327262273,0.2477535059,-0.0
1.468901562,0.2492494269,-0.07389090909
1.323454484,0.2649456522,-0.0
1.465402192,0.2653841633,-0.07389090909
1.468922698,0.2815168758,-0.07389090909
1.327262273,0.2821377985,-0.0
1.481959545,0.2997731976,-0.07389090909
1.34135271,0.3015060383,-0.0
1.506121954,0.3182353533,-0.07389090909
1.367361561,0.3209659572,-0.0
1.542742978,0.3365080327,-0.07389090909
1.406629354,0.3401401679,-0.0
1.594263081,0.3545588016,-0.07389090909
1.461733778,0.3590474752,-0.0
1.664075413,0.3721507942,-0.07389090909
1.53629601,0.3774711098,-0.0
1.756179558,0.3886793558,-0.07389090909
1.63458985,0.3947926668,-0.0
1.874674903,0.4031357603,-0.07389090909
1.760995471,0.4099633685,-0.0
2.02298904,0.4141538397,-0.07389090909
1.919177152,0.4215569638,-0.0
2.202816377,0.4202028477,-0.07389090909
2.110952778,0.4279712192,-0.0
2.412932514,0.4199925129,-0.07389090909
2.335028833,0.4278527336,-0.0
2.648296104,0.4129328499,-0.07389090909
2.586040167,0.4205782413,-0.0
2.89994697,0.3994334789,-0.07389090909
2.854438364,0.406567519,-0.0
3.127605524,0.387288926,-0.0
3.156052243,0.3809046806,-0.07389090909
3.392048459,0.3648230573,-0.0
3.403962933,0.3593407251,-0.07389090909
3.635929575,0.341324056,-0.0
3.632584828,0.3368035328,-0.07389090909
3.850986693,0.3185971096,-0.0
3.834176518,0.3150193412,-0.07389090909
4.033250271,0.2979032501,-0.0
4.005020647,0.2951924226,-0.07389090909
4.182594897,0.2799422872,-0.0
4.145002938,0.2779897242,-0.07389090909
4.107356037,0.2488742713,-0.1477818182
4.211503924,0.2623145852,-0.1477818182
3.976670228,0.2327843374,-0.1477818182
3.817169634,0.2142574555,-0.1477818182
3.628959966,0.1939276347,-0.1477818182
3.415511055,0.172933183,-0.1477818182
3.184050268,0.1529019481,-0.1477818182
2.944936529,0.1357755765,-0.1477818182
2.709982574,0.1234298013,-0.1477818182
2.490241914,0.1171863707,-0.1477818182
2.294088346,0.1174212657,-0.1477818182
2.12623717,0.123564092,-0.1477818182
1.987838563,0.134383753,-0.1477818182
1.87731546,0.1484246194,-0.1477818182
1.791471295,0.1643888044,-0.1477818182
1.726483043,0.181317564,-0.1477818182
1.678621981,0.1986296418,-0.1477818182
1.644719829,0.2160766185,-0.1477818182
1.62246937,0.2335830408,-0.1477818182
1.610540852,0.2507453479,-0.1477818182
1.6073499,0.2658226745,-0.1477818182
1.610583123,0.2808959532,-0.1477818182
1.62256638,0.2980403569,-0.1477818182
1.644882348,0.3155047493,-0.1477818182
1.678856602,0.3328758975,-0.1477818182
1.726792383,0.350070128,-0.1477818182
1.791854816,0.3668304786,-0.1477818182
1.877769266,0.3825660448,-0.1477818182
1.988354334,0.3963081521,-0.1477818182
2.126800929,0.4067507155,-0.1477818182
2.294679976,0.4124344762,-0.1477818182
2.490836195,0.4121322923,-0.1477818182
2.710552042,0.4052874585,-0.1477818182
2.945455575,0.3922994388,-0.1477818182
3.184498961,0.3745204353,-0.1477818182
3.415877407,0.3538583929,-0.1477818182
3.629240081,0.3322830095,-0.1477818182
3.817366343,0.3114415729,-0.1477818182
3.976791022,0.2924815951,-0.1477818182
4.10741098,0.2760371612,-0.1477818182
4.069736607,0.2483368984,-0.2216727273
4.166446673,0.2609990517,-0.2216727273
3.948380207,0.233182479,-0.2216727273
3.800261104,0.215739086,-0.2216727273
3.625475162,0.196607828,-0.2216727273
3.427242354,0.176865651,-0.2216727273
3.21227264,0.158051733,-0.2216727273
2.990185611,0.142001472,-0.2216727273
2.771953777,0.1304881705,-0.2216727273
2.567848454,0.1247602707,-0.2216727273
2.38565613,0.125171856,-0.2216727273
2.229767179,0.1311789677,-0.2216727273
2.101260109,0.1416116615,-0.2216727273
1.998678265,0.1550876103,-0.2216727273
1.919058938,0.1703731093,-0.2216727273
1.858857675,0.1865544314,-0.2216727273
1.814618294,0.2030688944,-0.2216727273
1.783398964,0.2196522542,-0.2216727273
1.7630277,0.2361819282,-0.2216727273
1.752180141,0.2522412688,-0.2216727273
1.749297608,0.2662611857,-0.2216727273
1.752243548,0.2802750306,-0.2216727273
1.763173215,0.2963075162,-0.2216727273
1.783642741,0.3127741453,-0.2216727273
1.814970226,0.3292437622,-0.2216727273
1.859321686,0.3455814544,-0.2216727273
1.91963422,0.361510163,-0.2216727273
1.999358975,0.3764527338,-0.2216727273
2.102033766,0.3894805439,-0.2216727273
2.230612817,0.3993475914,-0.2216727273
2.386543575,0.4046661047,-0.2216727273
2.568739876,0.4042720717,-0.2216727273
2.77280798,0.3976420671,-0.2216727273
2.99096418,0.3851653987,-0.2216727273
3.21294568,0.3681361899,-0.2216727273
3.427791882,0.3483760608,-0.2216727273
3.625895334,0.3277624862,-0.2216727273
3.800556169,0.3078638045,-0.2216727273
3.948561398,0.2897707676,-0.2216727273
4.069819021,0.2740845982,-0.2216727273
4.032117177,0.2477995255,-0.2955636364
4.121389423,0.2596835182,-0.2955636364
3.920090186,0.2335806206,-0.2955636364
3.783352574,0.2172207164,-0.2955636364
3.621990357,0.1992880212,-0.2955636364
3.438973652,0.180798119,-0.2955636364
3.240495012,0.1632015179,-0.2955636364
3.035434694,0.1482273675,-0.2955636364
2.83392498,0.1375465396,-0.2955636364
2.645454994,0.1323341707,-0.2955636364
2.477223915,0.1329224463,-0.2955636364
2.333297188,0.1387938434,-0.2955636364
2.214681655,0.1488395701,-0.2955636364
2.12004107,0.1617506012,-0.2955636364
2.046646581,0.1763574142,-0.2955636364
1.991232308,0.1917912989,-0.2955636364
1.950614608,0.2075081471,-0.2955636364
1.922078098,0.2232278899,-0.2955636364
1.90358603,0.2387808156,-0.2955636364
1.89381943,0.2537371898,-0.2955636364
1.891245316,0.2666996968,-0.2955636364
1.893903973,0.2796541079,-0.2955636364
1.903780051,0.2945746755,-0.2955636364
1.922403135,0.3100435413,-0.2955636364
1.951083849,0.325611627,-0.2955636364
1.991850989,0.3410927808,-0.2955636364
2.047413623,0.3561898475,-0.2955636364
2.120948683,0.3703394228,-0.2955636364
2.215713198,0.3826529358,-0.2955636364
2.334424705,0.3919444673,-0.2955636364
2.478407174,0.3968977332,-0.2955636364
2.646643557,0.396411851,-0.2955636364
2.835063918,0.3899966758,-0.2955636364
3.036472785,0.3780313586,-0.2955636364
3.241392399,0.3617519445,-0.2955636364
3.439706356,0.3428937286,-0.2955636364
3.622550587,0.3232419629,-0.2955636364
3.783745994,0.3042860361,-0.2955636364
3.920331774,0.2870599401,-0.2955636364
4.032227063,0.2721320353,-0.2955636364
3.994497748,0.2472621526,-0.3694545455
4.076332173,0.2583679846,-0.3694545455
3.891800165,0.2339787622,-0.3694545455
3.766444045,0.2187023468,-0.3694545455
3.618505553,0.2019682144,-0.3694545455
3.450704951,0.184730587,-0.3694545455
3.268717384,0.1683513028,-0.3694545455
3.080683776,0.1544532631,-0.3694545455
2.895896184,0.1446049087,-0.3694545455
2.723061535,0.1399080707,-0.3694545455
2.568791699,0.1406730365,-0.3694545455
2.436827196,0.1464087192,-0.3694545455
2.328103201,0.1560674786,-0.3694545455
2.241403875,0.1684135921,-0.3694545455
2.174234224,0.1823417191,-0.3694545455
2.12360694,0.1970281663,-0.3694545455
2.086610921,0.2119473997,-0.3694545455
2.060757232,0.2268035256,-0.3694545455
2.04414436,0.241379703,-0.3694545455
2.03545872,0.2552331108,-0.3694545455
2.033193023,0.267138208,-0.3694545455
2.035564397,0.2790331853,-0.3694545455
2.044386886,0.2928418348,-0.3694545455
2.061163528,0.3073129373,-0.3694545455
2.087197473,0.3219794918,-0.3694545455
2.124380291,0.3366041072,-0.3694545455
2.175193026,0.3508695319,-0.3694545455
2.242538391,0.3642261118,-0.3694545455
2.32939263,0.3758253276,-0.3694545455
2.438236594,0.3845413431,-0.3694545455
2.570270773,0.3891293618,-0.3694545455
2.724547238,0.3885516304,-0.3694545455
2.897319855,0.3823512844,-0.3694545455
3.081981391,0.3708973185,-0.3694545455
3.269839118,0.3553676991,-0.3694545455
3.45162083,0.3374113964,-0.3694545455
3.61920584,0.3187214396,-0.3694545455
3.766935819,0.3007082677,-0.3694545455
3.89210215,0.2843491126,-0.3694545455
3.994635104,0.2701794723,-0.3694545455
3.956878318,0.2467247797,-0.4433454545
4.031274922,0.2570524511,-0.4433454545
3.863510143,0.2343769038,-0.4433454545
3.749535515,0.2201839772,-0.4433454545
3.615020749,0.2046484076,-0.4433454545
3.462436249,0.188663055,-0.4433454545
3.296939756,0.1735010877,-0.4433454545
3.125932858,0.1606791586,-0.4433454545
2.957867387,0.1516632779,-0.4433454545
2.800668075,0.1474819707,-0.4433454545
2.660359483,0.1484236268,-0.4433454545
2.540357205,0.1540235949,-0.4433454545
2.441524747,0.1632953872,-0.4433454545
2.36276668,0.175076583,-0.4433454545
2.301821866,0.1883260241,-0.4433454545
2.255981572,0.2022650337,-0.4433454545
2.222607235,0.2163866524,-0.4433454545
2.199436367,0.2303791613,-0.4433454545
2.18470269,0.2439785903,-0.4433454545
2.177098009,0.2567290318,-0.4433454545
2.175140731,0.2675767192,-0.4433454545
2.177224822,0.2784122627,-0.4433454545
2.184993721,0.2911089941,-0.4433454545
2.199923921,0.3045823333,-0.4433454545
2.223311097,0.3183473566,-0.4433454545
2.256909594,0.3321154336,-0.4433454545
2.30297243,0.3455492163,-0.4433454545
2.3641281,0.3581128008,-0.4433454545
2.443072062,0.3689977194,-0.4433454545
2.542048482,0.377138219,-0.4433454545
2.662134372,0.3813609903,-0.4433454545
2.802450919,0.3806914097,-0.4433454545
2.959575793,0.374705893,-0.4433454545
3.127489996,0.3637632784,-0.4433454545
3.298285837,0.3489834538,-0.4433454545
3.463535305,0.3319290643,-0.4433454545
3.615861092,0.3142009163,-0.4433454545
3.750125644,0.2971304994,-0.4433454545
3.863872525,0.281638285,-0.4433454545
3.957043146,0.2682269093,-0.4433454545
3.919258888,0.2461874068,-0.5172363636
3.986217672,0.2557369176,-0.5172363636
3.835220122,0.2347750454,-0.5172363636
3.732626985,0.2216656076,-0.5172363636
3.611535944,0.2073286008,-0.5172363636
3.474167548,0.192595523,-0.5172363636
3.325162128,0.1786508726,-0.5172363636
3.171181941,0.1669050542,-0.5172363636
3.019838591,0.158721647,-0.5172363636
2.878274616,0.1550558706,-0.5172363636
2.751927267,0.1561742171,-0.5172363636
2.643887214,0.1616384706,-0.5172363636
2.554946293,0.1705232958,-0.5172363636
2.484129485,0.1817395739,-0.5172363636
2.429409509,0.194310329,-0.5172363636
2.388356205,0.2075019011,-0.5172363636
2.358603548,0.2208259051,-0.5172363636
2.338115501,0.2339547969,-0.5172363636
2.32526102,0.2465774777,-0.5172363636
2.318737298,0.2582249528,-0.5172363636
2.317088439,0.2680152304,-0.5172363636
2.318885247,0.2777913401,-0.5172363636
2.325600556,0.2893761534,-0.5172363636
2.338684315,0.3018517293,-0.5172363636
2.359424721,0.3147152213,-0.5172363636
2.389438897,0.32762676,-0.5172363636
2.430751833,0.3402289007,-0.5172363636
2.485717808,0.3519994899,-0.5172363636
2.556751494,0.3621701112,-0.5172363636
2.64586037,0.3697350949,-0.5172363636
2.753997971,0.3735926188,-0.5172363636
2.8803546,0.3728311891,-0.5172363636
3.021831731,0.3670605016,-0.5172363636
3.172998601,0.3566292383,-0.5172363636
3.326732555,0.3425992084,-0.5172363636
3.475449779,0.3264467321,-0.5172363636
3.612516345,0.309680393,-0.5172363636
3.733315469,0.293552731,-0.5172363636
3.835642901,0.2789274575,-0.5172363636
3.919451188,0.2662743463,-0.5172363636
3.881639458,0.2456500339,-0.5911272727
3.941160422,0.2544213841,-0.5911272727
3.806930101,0.235173187,-0.5911272727
3.715718456,0.223147238,-0.5911272727
3.60805114,0.210008794,-0.5911272727
3.485898846,0.196527991,-0.5911272727
3.3533845,0.1838006575,-0.5911272727
3.216431023,0.1731309497,-0.5911272727
3.081809794,0.1657800161,-0.5911272727
2.955881156,0.1626297706,-0.5911272727
2.843495051,0.1639248073,-0.5911272727
2.747417223,0.1692533463,-0.5911272727
2.668367839,0.1777512043,-0.5911272727
2.60549229,0.1884025648,-0.5911272727
2.556997152,0.2002946339,-0.5911272727
2.520730837,0.2127387686,-0.5911272727
2.494599861,0.2252651577,-0.5911272727
2.476794635,0.2375304326,-0.5911272727
2.465819349,0.2491763651,-0.5911272727
2.460376588,0.2597208738,-0.5911272727
2.459036147,0.2684537415,-0.5911272727
2.460545672,0.2771704174,-0.5911272727
2.466207391,0.2876433128,-0.5911272727
2.477444708,0.2991211254,-0.5911272727
2.495538345,0.3110830861,-0.5911272727
2.521968199,0.3231380863,-0.5911272727
2.558531236,0.3349085851,-0.5911272727
2.607307516,0.3458861789,-0.5911272727
2.670430926,0.355342503,-0.5911272727
2.749672259,0.3623319707,-0.5911272727
2.84586157,0.3658242473,-0.5911272727
2.958258282,0.3649709685,-0.5911272727
3.084087669,0.3594151102,-0.5911272727
3.218507206,0.3494951982,-0.5911272727
3.355179274,0.336214963,-0.5911272727
3.487364254,0.3209643999,-0.5911272727
3.609171598,0.3051598697,-0.5911272727
3.716505295,0.2899749626,-0.5911272727
3.807413277,0.27621663,-0.5911272727
3.881859229,0.2643217833,-0.5911272727
3.844020028,0.245112661,-0.6650181818
3.896103171,0.2531058506,-0.6650181818
3.77864008,0.2355713286,-0.6650181818
3.698809926,0.2246288684,-0.6650181818
3.604566335,0.2126889873,-0.6650181818
3.497630144,0.200460459,-0.6650181818
3.381606872,0.1889504424,-0.6650181818
3.261680105,0.1793568453,-0.6650181818
3.143780998,0.1728383853,-0.6650181818
3.033487696,0.1702036706,-0.6650181818
2.935062836,0.1716753976,-0.6650181818
2.850947232,0.1768682221,-0.6650181818
2.781789385,0.1849791129,-0.6650181818
2.726855096,0.1950655557,-0.6650181818
2.684584795,0.2062789388,-0.6650181818
2.65310547,0.217975636,-0.6650181818
2.630596175,0.2297044104,-0.6650181818
2.615473769,0.2411060683,-0.6650181818
2.606377679,0.2517752524,-0.6650181818
2.602015877,0.2612167948,-0.6650181818
2.600983855,0.2688922527,-0.6650181818
2.602206097,0.2765494948,-0.6650181818
2.606814226,0.2859104721,-0.6650181818
2.616205102,0.2963905214,-0.6650181818
2.631651969,0.3074509509,-0.6650181818
2.654497502,0.3186494127,-0.6650181818
2.68631064,0.3295882695,-0.6650181818
2.728897225,0.3397728679,-0.6650181818
2.784110358,0.3485148949,-0.6650181818
2.853484147,0.3549288466,-0.6650181818
2.937725169,0.3580558758,-0.6650181818
3.036161963,0.3571107478,-0.6650181818
3.146343607,0.3517697188,-0.6650181818
3.264015811,0.3423611581,-0.6650181818
3.383625993,0.3298307176,-0.6650181818
3.499278728,0.3154820677,-0.6650181818
3.605826851,0.3006393464,-0.6650181818
3.69969512,0.2863971943,-0.6650181818
3.779183653,0.2735058025,-0.6650181818
3.844267271,0.2623692203,-0.6650181818
3.806400598,0.2445752881,-0.7389090909
3.851045921,0.2517903171,-0.7389090909
3.750350059,0.2359694702,-0.7389090909
3.681901396,0.2261104988,-0.7389090909
3.601081531,0.2153691805,-0.7389090909
3.509361443,0.204392927,-0.7389090909
3.409829244,0.1941002273,-0.7389090909
3.306929187,0.1855827408,-0.7389090909
3.205752201,0.1798967544,-0.7389090909
3.111094237,0.1777775706,-0.7389090909
3.02663062,0.1794259879,-0.7389090909
2.954477241,0.1844830978,-0.7389090909
2.895210931,0.1922070214,-0.7389090909
2.848217901,0.2017285466,-0.7389090909
2.812172438,0.2122632437,-0.7389090909
2.785480102,0.2232125034,-0.7389090909
2.766592488,0.234143663,-0.7389090909
2.754152904,0.244681704,-0.7389090909
2.746936009,0.2543741398,-0.7389090909
2.743655166,0.2627127158,-0.7389090909
2.742931563,0.2693307639,-0.7389090909
2.743866522,0.2759285722,-0.7389090909
2.747421062,0.2841776314,-0.7389090909
2.754965495,0.2936599174,-0.7389090909
2.767765593,0.3038188157,-0.7389090909
2.787026805,0.3141607391,-0.7389090909
2.814090043,0.3242679539,-0.7389090909
2.850486933,0.3336595569,-0.7389090909
2.89778979,0.3416872867,-0.7389090909
2.957296035,0.3475257225,-0.7389090909
3.029588768,0.3502875044,-0.7389090909
3.114065644,0.3492505272,-0.7389090909
3.208599544,0.3441243274,-0.7389090909
3.309524417,0.335227118,-0.7389090909
3.412072712,0.3234464723,-0.7389090909
3.511193202,0.3099997356,-0.7389090909
3.602482104,0.2961188231,-0.7389090909
3.682884945,0.2828194259,-0.7389090909
3.750954028,0.270794975,-0.7389090909
3.806675312,0.2604166573,-0.7389090909
3.768781168,0.2440379152,-0.8128
3.805988671,0.2504747836,-0.8128
3.722060037,0.2363676118,-0.8128
3.664992867,0.2275921292,-0.8128
3.597596726,0.2180493737,-0.8128
3.521092741,0.208325395,-0.8128
3.438051616,0.1992500122,-0.8128
3.35217827,0.1918086364,-0.8128
3.267723405,0.1869551236,-0.8128
3.188700777,0.1853514706,-0.8128
3.118198404,0.1871765781,-0.8128
3.05800725,0.1920979735,-0.8128
3.008632478,0.19943493,-0.8128
2.969580706,0.2083915375,-0.8128
2.93976008,0.2182475487,-0.8128
2.917854735,0.2284493709,-0.8128
2.902588802,0.2385829157,-0.8128
2.892832038,0.2482573397,-0.8128
2.887494339,0.2569730272,-0.8128
2.885294456,0.2642086368,-0.8128
2.884879271,0.269769275,-0.8128
2.885526947,0.2753076495,-0.8128
2.888027897,0.2824447907,-0.8128
2.893725888,0.2909293134,-0.8128
2.903879217,0.3001866805,-0.8128
2.919556108,0.3096720655,-0.8128
2.941869446,0.3189476383,-0.8128
2.972076641,0.3275462459,-0.8128
3.011469222,0.3348596785,-0.8128
3.061107924,0.3401225984,-0.8128
3.121452367,0.3425191329,-0.8128
3.191969325,0.3413903065,-0.8128
3.270855482,0.336478936,-0.8128
3.355033022,0.3280930779,-0.8128
3.440519431,0.3170622269,-0.8128
3.523107677,0.3045174034,-0.8128
3.599137357,0.2915982999,-0.8128
3.66607477,0.2792416575,-0.8128
3.722724404,0.2680841475,-0.8128
3.769083354,0.2584640943,-0.8128
3.800955891,0.2384016027,-0.9075833635
3.837385395,0.2447365633,-0.9075833635
3.755211333,0.2308507014,-0.9075833635
3.699336485,0.2222087425,-0.9075833635
3.633347773,0.2128066309,-0.9075833635
3.558440469,0.2032192903,-0.9075833635
3.477131197,0.1942615037,-0.9075833635
3.393047113,0.1869013828,-0.9075833635
3.310349853,0.1820766052,-0.9075833635
3.232969273,0.1804388467,-0.9075833635
3.163929124,0.1821659275,-0.9075833635
3.10498347,0.1869338052,-0.9075833635
3.056627566,0.1940763175,-0.9075833635
3.018378954,0.2028136581,-0.9075833635
2.989169063,0.2124396023,-0.9075833635
2.967709818,0.222410929,-0.9075833635
2.952752195,0.2323210588,-0.9075833635
2.943189751,0.2417862991,-0.9075833635
2.937955441,0.2503164775,-0.9075833635
2.93579506,0.2573999839,-0.9075833635
2.935383753,0.2628448172,-0.9075833635
2.936013257,0.2682687556,-0.9075833635
2.938456195,0.2752598474,-0.9075833635
2.944028647,0.2835730732,-0.9075833635
2.953963275,0.2926468975,-0.9075833635
2.969306589,0.3019487168,-0.9075833635
2.991148744,0.3110507405,-0.9075833635
3.020721438,0.3194965871,-0.9075833635
3.059289906,0.3266917762,-0.9075833635
3.107893512,0.3318877649,-0.9075833635
3.166983031,0.3342860118,-0.9075833635
3.236036868,0.3332407684,-0.9075833635
3.313289368,0.328498653,-0.9075833635
3.395726353,0.3203587009,-0.9075833635
3.479447289,0.3096297881,-0.9075833635
3.560331525,0.2974158641,-0.9075833635
3.634793684,0.284829837,-0.9075833635
3.700351872,0.2727868381,-0.9075833635
3.755834854,0.2619093002,-0.9075833635
3.801239498,0.252528521,-0.9075833635
3.833130613,0.2327652903,-1.002366727
3.86878212,0.238998343,-1.002366727
3.78836263,0.2253337911,-1.002366727
3.733680103,0.2168253557,-1.002366727
3.669098819,0.207563888,-1.002366727
3.595788197,0.1981131856,-1.002366727
3.516210778,0.1892729951,-1.002366727
3.433915957,0.1819941293,-1.002366727
3.352976301,0.1771980869,-1.002366727
3.277237768,0.1755262229,-1.002366727
3.209659844,0.1771552769,-1.002366727
3.15195969,0.181769637,-1.002366727
3.104622655,0.1887177049,-1.002366727
3.067177203,0.1972357787,-1.002366727
3.038578045,0.2066316559,-1.002366727
3.017564901,0.2163724871,-1.002366727
3.002915589,0.226059202,-1.002366727
2.993547464,0.2353152586,-1.002366727
2.988416542,0.2436599278,-1.002366727
2.986295664,0.250591331,-1.002366727
2.985888234,0.2559203594,-1.002366727
2.986499568,0.2612298616,-1.002366727
2.988884493,0.2680749042,-1.002366727
2.994331406,0.276216833,-1.002366727
3.004047333,0.2851071145,-1.002366727
3.019057071,0.2942253681,-1.002366727
3.040428041,0.3031538427,-1.002366727
3.069366235,0.3114469283,-1.002366727
3.10711059,0.318523874,-1.002366727
3.154679101,0.3236529315,-1.002366727
3.212513695,0.3260528908,-1.002366727
3.280104411,0.3250912303,-1.002366727
3.355723254,0.3205183699,-1.002366727
3.436419685,0.3126243239,-1.002366727
3.518375147,0.3021973492,-1.002366727
3.597555373,0.2903143249,-1.002366727
3.670450012,0.2780613742,-1.002366727
3.734628975,0.2663320188,-1.002366727
3.788945305,0.255734453,-1.002366727
3.833395642,0.2465929478,-1.002366727
3.865305336,0.2271289778,-1.097150091
3.900178844,0.2332601227,-1.097150091
3.821513926,0.2198168808,-1.097150091
3.768023722,0.2114419689,-1.097150091
3.704849866,0.2023211452,-1.097150091
3.633135925,0.1930070809,-1.097150091
3.555290359,0.1842844866,-1.097150091
3.4747848,0.1770868757,-1.097150091
3.395602749,0.1723195686,-1.097150091
3.321506264,0.1706135991,-1.097150091
3.255390564,0.1721446263,-1.097150091
3.198935911,0.1766054687,-1.097150091
3.152617744,0.1833590924,-1.097150091
3.115975451,0.1916578993,-1.097150091
3.087987027,0.2008237096,-1.097150091
3.067419984,0.2103340452,-1.097150091
3.053078982,0.2197973451,-1.097150091
3.043905178,0.228844218,-1.097150091
3.038877644,0.2370033781,-1.097150091
3.036796269,0.2437826782,-1.097150091
3.036392716,0.2489959016,-1.097150091
3.036985879,0.2541909676,-1.097150091
3.039312791,0.260889961,-1.097150091
3.044634165,0.2688605928,-1.097150091
3.05413139,0.2775673315,-1.097150091
3.068807552,0.2865020194,-1.097150091
3.089707338,0.2952569448,-1.097150091
3.118011031,0.3033972695,-1.097150091
3.154931274,0.3103559717,-1.097150091
3.20146469,0.315418098,-1.097150091
3.258044359,0.3178197697,-1.097150091
3.324171955,0.3169416922,-1.097150091
3.39815714,0.3125380868,-1.097150091
3.477113016,0.3048899469,-1.097150091
3.557303005,0.2947649104,-1.097150091
3.634779221,0.2832127856,-1.097150091
3.706106339,0.2712929114,-1.097150091
3.768906077,0.2598771994,-1.097150091
3.822055755,0.2495596058,-1.097150091
3.865551786,0.2406573745,-1.097150091
3.897480059,0.2214926654,-1.191933454
3.931575569,0.2275219025,-1.191933454
3.854665222,0.2142999704,-1.191933454
3.80236734,0.2060585822,-1.191933454
3.740600912,0.1970784023,-1.191933454
3.670483652,0.1879009762,-1.191933454
3.59436994,0.1792959781,-1.191933454
3.515653644,0.1721796222,-1.191933454
3.438229197,0.1674410503,-1.191933454
3.36577476,0.1657009752,-1.191933454
3.301121284,0.1671339756,-1.191933454
3.245912131,0.1714413005,-1.191933454
3.200612833,0.1780004799,-1.191933454
3.164773699,0.1860800198,-1.191933454
3.137396009,0.1950157632,-1.191933454
3.117275067,0.2042956033,-1.191933454
3.103242375,0.2135354882,-1.191933454
3.094262891,0.2223731774,-1.191933454
3.089338745,0.2303468284,-1.191933454
3.087296873,0.2369740253,-1.191933454
3.086897197,0.2420714438,-1.191933454
3.087472189,0.2471520737,-1.191933454
3.089741089,0.2537050177,-1.191933454
3.094936923,0.2615043526,-1.191933454
3.104215448,0.2700275485,-1.191933454
3.118558034,0.2787786707,-1.191933454
3.138986635,0.287360047,-1.191933454
3.166655828,0.2953476107,-1.191933454
3.202751958,0.3021880694,-1.191933454
3.248250279,0.3071832646,-1.191933454
3.303575024,0.3095866487,-1.191933454
3.368239498,0.3087921541,-1.191933454
3.440591026,0.3045578038,-1.191933454
3.517806348,0.2971555699,-1.191933454
3.596230863,0.2873324716,-1.191933454
3.67200307,0.2761112464,-1.191933454
3.741762667,0.2645244486,-1.191933454
3.803183179,0.2534223801,-1.191933454
3.855166206,0.2433847586,-1.191933454
3.89770793,0.2347218013,-1.191933454
3.929654781,0.2158563529,-1.286716818
3.962972293,0.2217836822,-1.286716818
3.887816518,0.2087830601,-1.286716818
3.836710958,0.2006751954,-1.286716818
3.776351959,0.1918356595,-1.286716818
3.70783138,0.1827948715,-1.286716818
3.633449521,0.1743074696,-1.286716818
3.556522487,0.1672723686,-1.286716818
3.480855645,0.162562532,-1.286716818
3.410043255,0.1607883514,-1.286716818
3.346852004,0.162123325,-1.286716818
3.292888351,0.1662771322,-1.286716818
3.248607922,0.1726418674,-1.286716818
3.213571948,0.1805021404,-1.286716818
3.186804992,0.1892078169,-1.286716818
3.16713015,0.1982571614,-1.286716818
3.153405769,0.2072736314,-1.286716818
3.144620604,0.2159021368,-1.286716818
3.139799846,0.2236902787,-1.286716818
3.137797477,0.2301653724,-1.286716818
3.137401679,0.2351469859,-1.286716818
3.1379585,0.2401131797,-1.286716818
3.140169387,0.2465200745,-1.286716818
3.145239682,0.2541481124,-1.286716818
3.154299506,0.2624877655,-1.286716818
3.168308515,0.271055322,-1.286716818
3.188265932,0.2794631491,-1.286716818
3.215300625,0.2872979519,-1.286716818
3.250572642,0.2940201671,-1.286716818
3.295035868,0.2989484311,-1.286716818
3.349105688,0.3013535277,-1.286716818
3.412307041,0.300642616,-1.286716818
3.483024911,0.2965775207,-1.286716818
3.558499679,0.2894211929,-1.286716818
3.635158722,0.2799000327,-1.286716818
3.709226918,0.2690097071,-1.286716818
3.777418995,0.2577559858,-1.286716818
3.837460281,0.2469675607,-1.286716818
3.888276656,0.2372099113,-1.286716818
3.929864074,0.228786228,-1.286716818
3.961829504,0.2102200404,-1.381500181
3.994369018,0.2160454619,-1.381500181
3.920967814,0.2032661498,-1.381500181
3.871054576,0.1952918087,-1.381500181
3.812103005,0.1865929167,-1.381500181
3.745179108,0.1776887668,-1.381500181
3.672529102,0.169318961,-1.381500181
3.59739133,0.1623651151,-1.381500181
3.523482092,0.1576840137,-1.381500181
3.454311751,0.1558757276,-1.381500181
3.392582724,0.1571126744,-1.381500181
3.339864571,0.1611129639,-1.381500181
3.296603011,0.1672832548,-1.381500181
3.262370196,0.174924261,-1.381500181
3.236213974,0.1833998705,-1.381500181
3.216985233,0.1922187196,-1.381500181
3.203569162,0.2010117745,-1.381500181
3.194978317,0.2094310963,-1.381500181
3.190260948,0.217033729,-1.381500181
3.188298081,0.2233567195,-1.381500181
3.187906161,0.2282225281,-1.381500181
3.18844481,0.2330742857,-1.381500181
3.190597685,0.2393351312,-1.381500181
3.195542441,0.2467918721,-1.381500181
3.204383564,0.2549479825,-1.381500181
3.218058997,0.2633319733,-1.381500181
3.237545229,0.2715662513,-1.381500181
3.263945421,0.2792482931,-1.381500181
3.298393326,0.2858522649,-1.381500181
3.341821457,0.2907135977,-1.381500181
3.394636352,0.2931204066,-1.381500181
3.456374584,0.2924930779,-1.381500181
3.525458797,0.2885972376,-1.381500181
3.599193011,0.2816868158,-1.381500181
3.67408658,0.2724675939,-1.381500181
3.746450766,0.2619081679,-1.381500181
3.813075322,0.250987523,-1.381500181
3.871737383,0.2405127414,-1.381500181
3.921387106,0.2310350641,-1.381500181
3.962020218,0.2228506548,-1.381500181
3.994004226,0.204583728,-1.476283545
4.025765742,0.2103072416,-1.476283545
3.95411911,0.1977492394,-1.476283545
3.905398195,0.1899084219,-1.476283545
3.847854052,0.1813501738,-1.476283545
3.782526836,0.1725826621,-1.476283545
3.711608683,0.1643304525,-1.476283545
3.638260174,0.1574578615,-1.476283545
3.56610854,0.1528054954,-1.476283545
3.498580247,0.1509631037,-1.476283545
3.438313444,0.1521020238,-1.476283545
3.386840792,0.1559487957,-1.476283545
3.3445981,0.1619246423,-1.476283545
3.311168445,0.1693463816,-1.476283545
3.285622956,0.1775919242,-1.476283545
3.266840315,0.1861802777,-1.476283545
3.253732556,0.1947499176,-1.476283545
3.24533603,0.2029600557,-1.476283545
3.240722049,0.2103771793,-1.476283545
3.238798686,0.2165480667,-1.476283545
3.238410642,0.2212980703,-1.476283545
3.238931121,0.2260353917,-1.476283545
3.241025983,0.232150188,-1.476283545
3.245845199,0.2394356319,-1.476283545
3.254467622,0.2474081995,-1.476283545
3.267809478,0.2556086246,-1.476283545
3.286824526,0.2636693535,-1.476283545
3.312590218,0.2711986343,-1.476283545
3.34621401,0.2776843626,-1.476283545
3.388607046,0.2824787642,-1.476283545
3.440167017,0.2848872856,-1.476283545
3.500442128,0.2843435398,-1.476283545
3.567892683,0.2806169545,-1.476283545
3.639886342,0.2739524388,-1.476283545
3.713014438,0.2650351551,-1.476283545
3.783674615,0.2548066286,-1.476283545
3.84873165,0.2442190601,-1.476283545
3.906014485,0.234057922,-1.476283545
3.954497557,0.2248602169,-1.476283545
3.994176362,0.2169150815,-1.476283545
4.026178949,0.1989474155,-1.571066908
4.057162467,0.2045690213,-1.571066908
3.987270406,0.1922323291,-1.571066908
3.939741813,0.1845250351,-1.571066908
3.883605098,0.176107431,-1.571066908
3.819874564,0.1674765574,-1.571066908
3.750688264,0.159341944,-1.571066908
3.679129017,0.152550608,-1.571066908
3.608734988,0.1479269771,-1.571066908
3.542848742,0.1460504799,-1.571066908
3.484044164,0.1470913731,-1.571066908
3.433817012,0.1507846274,-1.571066908
3.392593189,0.1565660298,-1.571066908
3.359966693,0.1637685021,-1.571066908
3.335031939,0.1717839778,-1.571066908
3.316695398,0.1801418358,-1.571066908
3.303895949,0.1884880608,-1.571066908
3.295693744,0.1964890151,-1.571066908
3.291183151,0.2037206296,-1.571066908
3.28929929,0.2097394138,-1.571066908
3.288915124,0.2143736125,-1.571066908
3.289417431,0.2189964978,-1.571066908
3.291454281,0.2249652447,-1.571066908
3.296147958,0.2320793917,-1.571066908
3.30455168,0.2398684165,-1.571066908
3.31755996,0.2478852759,-1.571066908
3.336103823,0.2557724556,-1.571066908
3.361235015,0.2631489755,-1.571066908
3.394034694,0.2695164603,-1.571066908
3.435392635,0.2742439308,-1.571066908
3.485697681,0.2766541645,-1.571066908
3.544509671,0.2761940017,-1.571066908
3.610326569,0.2726366715,-1.571066908
3.680579674,0.2662180618,-1.571066908
3.751942296,0.2576027162,-1.571066908
3.820898463,0.2477050894,-1.571066908
3.884387977,0.2374505973,-1.571066908
3.940291587,0.2276031026,-1.571066908
3.987608007,0.2186853696,-1.571066908
4.026332506,0.2109795083,-1.571066908
4.058353671,0.193311103,-1.665850272
4.088559191,0.198830801,-1.665850272
4.020421702,0.1867154188,-1.665850272
3.974085431,0.1791416484,-1.665850272
3.919356145,0.1708646881,-1.665850272
3.857222291,0.1623704527,-1.665850272
3.789767845,0.1543534355,-1.665850272
3.719997861,0.1476433544,-1.665850272
3.651361436,0.1430484588,-1.665850272
3.587117238,0.1411378561,-1.665850272
3.529774884,0.1420807225,-1.665850272
3.480793232,0.1456204592,-1.665850272
3.440588278,0.1512074173,-1.665850272
3.408764941,0.1581906227,-1.665850272
3.384440921,0.1659760315,-1.665850272
3.366550481,0.1741033939,-1.665850272
3.354059342,0.1822262039,-1.665850272
3.346051457,0.1900179745,-1.665850272
3.341644252,0.1970640799,-1.665850272
3.339799894,0.2029307609,-1.665850272
3.339419605,0.2074491547,-1.665850272
3.339903742,0.2119576038,-1.665850272
3.341882579,0.2177803015,-1.665850272
3.346450717,0.2247231515,-1.665850272
3.354635738,0.2323286335,-1.665850272
3.367310441,0.2401619272,-1.665850272
3.385383121,0.2478755578,-1.665850272
3.409879812,0.2550993167,-1.665850272
3.441855379,0.2613485581,-1.665850272
3.482178224,0.2660090973,-1.665850272
3.531228345,0.2684210435,-1.665850272
3.588577214,0.2680444635,-1.665850272
3.652760455,0.2646563884,-1.665850272
3.721273005,0.2584836848,-1.665850272
3.790870154,0.2501702774,-1.665850272
3.858122311,0.2406035501,-1.665850272
3.920044305,0.2306821345,-1.665850272
3.974568689,0.2211482833,-1.665850272
4.020718457,0.2125105224,-1.665850272
4.05848865,0.205043935,-1.665850272
4.090528394,0.1876747906,-1.760633635
4.119955916,0.1930925807,-1.760633635
4.053572998,0.1811985084,-1.760633635
4.008429049,0.1737582616,-1.760633635
3.955107191,0.1656219453,-1.760633635
3.894570019,0.157264348,-1.760633635
3.828847426,0.1493649269,-1.760633635
3.760866704,0.1427361009,-1.760633635
3.693987884,0.1381699405,-1.760633635
3.631385733,0.1362252322,-1.760633635
3.575505604,0.1370700719,-1.760633635
3.527769453,0.1404562909,-1.760633635
3.488583367,0.1458488048,-1.760633635
3.45756319,0.1526127433,-1.760633635
3.433849903,0.1601680851,-1.760633635
3.416405564,0.168064952,-1.760633635
3.404222736,0.175964347,-1.760633635
3.39640917,0.183546934,-1.760633635
3.392105354,0.1904075302,-1.760633635
3.390300498,0.196122108,-1.760633635
3.389924087,0.2005246969,-1.760633635
3.390390053,0.2049187098,-1.760633635
3.392310877,0.2105953582,-1.760633635
3.396753476,0.2173669113,-1.760633635
3.404719795,0.2247888505,-1.760633635
3.417060923,0.2324385785,-1.760633635
3.434662418,0.23997866,-1.760633635
3.458524608,0.2470496579,-1.760633635
3.489676063,0.2531806558,-1.760633635
3.528963813,0.2577742639,-1.760633635
3.576759009,0.2601879224,-1.760633635
3.632644757,0.2598949254,-1.760633635
3.695194341,0.2566761053,-1.760633635
3.761966337,0.2507493078,-1.760633635
3.829798013,0.2427378386,-1.760633635
3.89534616,0.2335020109,-1.760633635
3.955700632,0.2239136717,-1.760633635
4.008845792,0.2146934639,-1.760633635
4.053828908,0.2063356752,-1.760633635
4.090644794,0.1991083618,-1.760633635
4.122703117,0.1820384781,-1.855416999
4.151352641,0.1873543604,-1.855416999
4.086724294,0.1756815981,-1.855416999
4.042772667,0.1683748749,-1.855416999
3.990858238,0.1603792025,-1.855416999
3.931917747,0.1521582433,-1.855416999
3.867927007,0.1443764184,-1.855416999
3.801735548,0.1378288473,-1.855416999
3.736614332,0.1332914222,-1.855416999
3.675654229,0.1313126084,-1.855416999
3.621236324,0.1320594213,-1.855416999
3.574745673,0.1352921226,-1.855416999
3.536578456,0.1404901922,-1.855416999
3.506361438,0.1470348639,-1.855416999
3.483258885,0.1543601388,-1.855416999
3.466260647,0.1620265102,-1.855416999
3.454386129,0.1697024902,-1.855416999
3.446766883,0.1770758934,-1.855416999
3.442566455,0.1837509805,-1.855416999
3.440801103,0.1893134552,-1.855416999
3.440428568,0.1936002391,-1.855416999
3.440876363,0.1978798159,-1.855416999
3.442739175,0.203410415,-1.855416999
3.447056234,0.2100106711,-1.855416999
3.454803853,0.2172490675,-1.855416999
3.466811404,0.2247152297,-1.855416999
3.483941715,0.2320817621,-1.855416999
3.507169405,0.2389999991,-1.855416999
3.537496747,0.2450127535,-1.855416999
3.575749401,0.2495394304,-1.855416999
3.622289674,0.2519548014,-1.855416999
3.676712301,0.2517453873,-1.855416999
3.737628227,0.2486958222,-1.855416999
3.802659668,0.2430149308,-1.855416999
3.868725871,0.2353053998,-1.855416999
3.932570008,0.2264004716,-1.855416999
3.99135696,0.2171452089,-1.855416999
4.043122894,0.2082386446,-1.855416999
4.086939358,0.200160828,-1.855416999
4.122800938,0.1931727885,-1.855416999
4.154877839,0.1764021656,-1.950200362
4.182749365,0.1816161401,-1.950200362
4.11987559,0.1701646878,-1.950200362
4.077116286,0.1629914881,-1.950200362
4.026609284,0.1551364596,-1.950200362
3.969265475,0.1470521386,-1.950200362
3.907006588,0.1393879099,-1.950200362
3.842604391,0.1329215938,-1.950200362
3.77924078,0.1284129038,-1.950200362
3.719922725,0.1263999846,-1.950200362
3.666967044,0.1270487707,-1.950200362
3.621721893,0.1301279544,-1.950200362
3.584573545,0.1351315797,-1.950200362
3.555159687,0.1414569844,-1.950200362
3.532667868,0.1485521924,-1.950200362
3.51611573,0.1559880683,-1.950200362
3.504549523,0.1634406333,-1.950200362
3.497124596,0.1706048528,-1.950200362
3.493027556,0.1770944309,-1.950200362
3.491301707,0.1825048023,-1.950200362
3.49093305,0.1866757812,-1.950200362
3.491362674,0.1908409219,-1.950200362
3.493167473,0.1962254717,-1.950200362
3.497358993,0.2026544309,-1.950200362
3.504887911,0.2097092845,-1.950200362
3.516561885,0.216991881,-1.950200362
3.533221012,0.2241848643,-1.950200362
3.555814202,0.2309503403,-1.950200362
3.585317431,0.2368448513,-1.950200362
3.62253499,0.241304597,-1.950200362
3.667820338,0.2437216803,-1.950200362
3.720779844,0.2435958492,-1.950200362
3.780062113,0.2407155392,-1.950200362
3.843353,0.2352805538,-1.950200362
3.907653729,0.2278729609,-1.950200362
3.969793856,0.2192989324,-1.950200362
4.027013288,0.2103767461,-1.950200362
4.077399996,0.2017838252,-1.950200362
4.120049809,0.1939859807,-1.950200362
4.154957082,0.1872372153,-1.950200362
4.187052562,0.1707658532,-2.044983726
4.21414609,0.1758779198,-2.044983726
4.153026886,0.1646477774,-2.044983726
4.111459904,0.1576081014,-2.044983726
4.062360331,0.1498937168,-2.044983726
4.006613203,0.1419460339,-2.044983726
3.946086169,0.1343994013,-2.044983726
3.883473235,0.1280143402,-2.044983726
3.821867228,0.1235343855,-2.044983726
3.76419122,0.1214873607,-2.044983726
3.712697763,0.12203812,-2.044983726
3.668698113,0.1249637861,-2.044983726
3.632568634,0.1297729672,-2.044983726
3.603957935,0.135879105,-2.044983726
3.58207685,0.1427442461,-2.044983726
3.565970813,0.1499496264,-2.044983726
3.554712916,0.1571787764,-2.044983726
3.54748231,0.1641338122,-2.044983726
3.543488658,0.1704378812,-2.044983726
3.541802311,0.1756961494,-2.044983726
3.541437532,0.1797513234,-2.044983726
3.541848984,0.1838020279,-2.044983726
3.543595771,0.1890405285,-2.044983726
3.547661752,0.1952981907,-2.044983726
3.554971969,0.2021695015,-2.044983726
3.566312367,0.2092685323,-2.044983726
3.582500309,0.2162879665,-2.044983726
3.604458999,0.2229006815,-2.044983726
3.633138115,0.228676949,-2.044983726
3.669320579,0.2330697635,-2.044983726
3.713351002,0.2354885593,-2.044983726
3.764847387,0.2354463111,-2.044983726
3.822495998,0.2327352561,-2.044983726
3.884046331,0.2275461768,-2.044983726
3.946581587,0.2204405221,-2.044983726
4.007017704,0.2121973931,-2.044983726
4.062669615,0.2036082832,-2.044983726
4.111677098,0.1953290059,-2.044983726
4.153160259,0.1878111335,-2.044983726
4.187113226,0.181301642,-2.044983726
4.219227284,0.1651295407,-2.139767089
4.245542814,0.1701396995,-2.139767089
4.186178182,0.1591308671,-2.139767089
4.145803522,0.1522247146,-2.139767089
4.098111377,0.1446509739,-2.139767089
4.04396093,0.1368399292,-2.139767089
3.98516575,0.1294108928,-2.139767089
3.924342078,0.1231070867,-2.139767089
3.864493676,0.1186558672,-2.139767089
3.808459716,0.1165747369,-2.139767089
3.758428483,0.1170274694,-2.139767089
3.715674334,0.1197996179,-2.139767089
3.680563722,0.1244143547,-2.139767089
3.652756183,0.1303012256,-2.139767089
3.631485832,0.1369362997,-2.139767089
3.615825896,0.1439111845,-2.139767089
3.604876309,0.1509169196,-2.139767089
3.597840023,0.1576627717,-2.139767089
3.593949759,0.1637813315,-2.139767089
3.592302916,0.1688874966,-2.139767089
3.591942013,0.1728268656,-2.139767089
3.592335295,0.176763134,-2.139767089
3.594024069,0.1818555852,-2.139767089
3.59796451,0.1879419505,-2.139767089
3.605056027,0.1946297185,-2.139767089
3.616062848,0.2015451836,-2.139767089
3.631779606,0.2083910686,-2.139767089
3.653103795,0.2148510227,-2.139767089
3.680958799,0.2205090467,-2.139767089
3.716106168,0.2248349301,-2.139767089
3.758881667,0.2272554383,-2.139767089
3.80891493,0.227296773,-2.139767089
3.864929884,0.224754973,-2.139767089
3.924739663,0.2198117997,-2.139767089
3.985509445,0.2130080833,-2.139767089
4.044241553,0.2050958539,-2.139767089
4.098325943,0.1968398204,-2.139767089
4.1459542,0.1888741865,-2.139767089
4.186270709,0.1816362863,-2.139767089
4.21926937,0.1753660688,-2.139767089
4.251402007,0.1594932283,-2.234550453
4.276939539,0.1644014792,-2.234550453
4.219329478,0.1536139568,-2.234550453
4.18014714,0.1468413278,-2.234550453
4.133862424,0.1394082311,-2.234550453
4.081308658,0.1317338245,-2.234550453
4.024245331,0.1244223843,-2.234550453
3.965210922,0.1181998331,-2.234550453
3.907120124,0.1137773489,-2.234550453
3.852728212,0.1116621131,-2.234550453
3.804159203,0.1120168188,-2.234550453
3.762650554,0.1146354496,-2.234550453
3.728558811,0.1190557422,-2.234550453
3.701554432,0.1247233462,-2.234550453
3.680894815,0.1311283534,-2.234550453
3.665680979,0.1378727426,-2.234550453
3.655039703,0.1446550627,-2.234550453
3.648197736,0.1511917311,-2.234550453
3.644410861,0.1571247818,-2.234550453
3.64280352,0.1620788437,-2.234550453
3.642446495,0.1659024078,-2.234550453
3.642821606,0.16972424,-2.234550453
3.644452366,0.174670642,-2.234550453
3.648267269,0.1805857102,-2.234550453
3.655140085,0.1870899355,-2.234550453
3.66581333,0.1938218349,-2.234550453
3.681058903,0.2004941708,-2.234550453
3.701748592,0.2068013639,-2.234550453
3.728779483,0.2123411445,-2.234550453
3.762891757,0.2166000966,-2.234550453
3.804412331,0.2190223172,-2.234550453
3.852982474,0.2191472349,-2.234550453
3.90736377,0.2167746899,-2.234550453
3.965432994,0.2120774227,-2.234550453
4.024437303,0.2055756444,-2.234550453
4.081465401,0.1979943146,-2.234550453
4.13398227,0.1900713576,-2.234550453
4.180231302,0.1824193671,-2.234550453
4.21938116,0.175461439,-2.234550453
4.251425514,0.1694304955,-2.234550453
4.283576729,0.1538569158,-2.329333816
4.308336263,0.1586632589,-2.329333816
4.252480774,0.1480970464,-2.329333816
4.214490759,0.1414579411,-2.329333816
4.16961347,0.1341654883,-2.329333816
4.118656386,0.1266277198,-2.329333816
4.063324912,0.1194338758,-2.329333816
4.006079765,0.1132925796,-2.329333816
3.949746572,0.1088988306,-2.329333816
3.896996707,0.1067494892,-2.329333816
3.849889923,0.1070061682,-2.329333816
3.809626774,0.1094712813,-2.329333816
3.7765539,0.1136971296,-2.329333816
3.75035268,0.1191454667,-2.329333816
3.730303797,0.125320407,-2.329333816
3.715536062,0.1318343008,-2.329333816
3.705203096,0.1383932058,-2.329333816
3.698555449,0.1447206905,-2.329333816
3.694871962,0.1504682321,-2.329333816
3.693304124,0.1552701908,-2.329333816
3.692950976,0.15897795,-2.329333816
3.693307916,0.162685346,-2.329333816
3.694880664,0.1674856987,-2.329333816
3.698570028,0.17322947,-2.329333816
3.705224143,0.1795501525,-2.329333816
3.715563811,0.1860984862,-2.329333816
3.7303382,0.1925972729,-2.329333816
3.750393389,0.1987517051,-2.329333816
3.776600167,0.2041732422,-2.329333816
3.809677346,0.2083652632,-2.329333816
3.849942995,0.2107891962,-2.329333816
3.897050017,0.2109976968,-2.329333816
3.949797656,0.2087944069,-2.329333816
4.006126326,0.2043430457,-2.329333816
4.063365162,0.1981432056,-2.329333816
4.118689249,0.1908927754,-2.329333816
4.169638598,0.1833028948,-2.329333816
4.214508404,0.1759645478,-2.329333816
4.25249161,0.1692865918,-2.329333816
4.283581658,0.1634949223,-2.329333816
4.315751452,0.1482206033,-2.42411718
4.339732988,0.1529250387,-2.42411718
4.28563207,0.1425801361,-2.42411718
4.248834377,0.1360745543,-2.42411718
4.205364517,0.1289227454,-2.42411718
4.156004114,0.1215216151,-2.42411718
4.102404493,0.1144453672,-2.42411718
4.046948609,0.1083853261,-2.42411718
3.99237302,0.1040203123,-2.42411718
3.941265203,0.1018368654,-2.42411718
3.895620643,0.1019955175,-2.42411718
3.856602995,0.1043071131,-2.42411718
3.824548989,0.1083385171,-2.42411718
3.799150929,0.1135675873,-2.42411718
3.779712779,0.1195124607,-2.42411718
3.765391145,0.1257958589,-2.42411718
3.755366489,0.132131349,-2.42411718
3.748913162,0.1382496499,-2.42411718
3.745333064,0.1438116824,-2.42411718
3.743804728,0.1484615379,-2.42411718
3.743455458,0.1520534922,-2.42411718
3.743794227,0.155646452,-2.42411718
3.745308962,0.1603007555,-2.42411718
3.748872786,0.1658732298,-2.42411718
3.7553082,0.1720103696,-2.42411718
3.765314293,0.1783751375,-2.42411718
3.779617498,0.1847003751,-2.42411718
3.799038185,0.1907020463,-2.42411718
3.824420851,0.1960053399,-2.42411718
3.856462935,0.2001304297,-2.42411718
3.895473659,0.2025560751,-2.42411718
3.94111756,0.2028481587,-2.42411718
3.992231542,0.2008141238,-2.42411718
4.046819657,0.1966086687,-2.42411718
4.10229302,0.1907107668,-2.42411718
4.155913098,0.1837912361,-2.42411718
4.205294925,0.176534432,-2.42411718
4.248785507,0.1695097284,-2.42411718
4.28560206,0.1631117446,-2.42411718
4.315737802,0.157559349,-2.42411718
4.347926175,0.1425842909,-2.518900543
4.371129712,0.1471868184,-2.518900543
4.318783366,0.1370632258,-2.518900543
4.283177995,0.1306911676,-2.518900543
4.241115563,0.1236800026,-2.518900543
4.193351841,0.1164155104,-2.518900543
4.141484074,0.1094568587,-2.518900543
4.087817452,0.1034780725,-2.518900543
4.034999468,0.09914179399,-2.518900543
3.985533698,0.09692424155,-2.518900543
3.941351363,0.09698486691,-2.518900543
3.903579215,0.09914294481,-2.518900543
3.872544078,0.1029799046,-2.518900543
3.847949177,0.1079897079,-2.518900543
3.829121761,0.1137045143,-2.518900543
3.815246228,0.119757417,-2.518900543
3.805529883,0.1258694921,-2.518900543
3.799270876,0.1317786094,-2.518900543
3.795794165,0.1371551327,-2.518900543
3.794305333,0.1416528851,-2.518900543
3.793959939,0.1451290343,-2.518900543
3.794280537,0.1486075581,-2.518900543
3.79573726,0.1531158122,-2.518900543
3.799175545,0.1585169896,-2.518900543
3.805392258,0.1644705866,-2.518900543
3.815064774,0.1706517888,-2.518900543
3.828896795,0.1768034773,-2.518900543
3.847682982,0.1826523875,-2.518900543
3.872241536,0.1878374377,-2.518900543
3.903248524,0.1918955963,-2.518900543
3.941004324,0.1943229541,-2.518900543
3.985185103,0.1946986205,-2.518900543
4.034665428,0.1928338407,-2.518900543
4.087512989,0.1888742917,-2.518900543
4.141220878,0.1832783279,-2.518900543
4.193136946,0.1766896968,-2.518900543
4.240951253,0.1697659692,-2.518900543
4.283062609,0.1630549091,-2.518900543
4.318712511,0.1569368974,-2.518900543
4.347893946,0.1516237758,-2.518900543
4.380100897,0.1369479784,-2.613683907
4.402526437,0.1414485981,-2.613683907
4.351934663,0.1315463154,-2.613683907
4.317521613,0.1253077808,-2.613683907
4.27686661,0.1184372597,-2.613683907
4.230699569,0.1113094057,-2.613683907
4.180563655,0.1044683502,-2.613683907
4.128686296,0.09857081896,-2.613683907
4.077625916,0.09426327569,-2.613683907
4.029802194,0.09201161772,-2.613683907
3.987082083,0.09197421628,-2.613683907
3.950555435,0.09397877655,-2.613683907
3.920539167,0.09762129207,-2.613683907
3.896747426,0.1024118285,-2.613683907
3.878530744,0.107896568,-2.613683907
3.865101311,0.1137189751,-2.613683907
3.855693276,0.1196076352,-2.613683907
3.849628589,0.1253075688,-2.613683907
3.846255267,0.130498583,-2.613683907
3.844805937,0.1348442322,-2.613683907
3.844464421,0.1382045765,-2.613683907
3.844766848,0.1415686641,-2.613683907
3.846165558,0.145930869,-2.613683907
3.849478304,0.1511607494,-2.613683907
3.855476316,0.1569308036,-2.613683907
3.864815256,0.1629284401,-2.613683907
3.878176092,0.1689065794,-2.613683907
3.896327779,0.1746027287,-2.613683907
3.92006222,0.1796695354,-2.613683907
3.950034113,0.1836607628,-2.613683907
3.986534988,0.186089833,-2.613683907
4.029252647,0.1865490824,-2.613683907
4.077099314,0.1848535576,-2.613683907
4.12820632,0.1811399147,-2.613683907
4.180148736,0.1758458891,-2.613683907
4.230360794,0.1695881576,-2.613683907
4.276607581,0.1629975063,-2.613683907
4.317339711,0.1566000897,-2.613683907
4.351822961,0.1507620501,-2.613683907
4.38005009,0.1456882025,-2.613683907
4.41227562,0.1313116659,-2.70846727
4.433923161,0.1357103778,-2.70846727
4.385085959,0.1260294051,-2.70846727
4.351865232,0.119924394,-2.70846727
4.312617656,0.1131945169,-2.70846727
4.268047297,0.106203301,-2.70846727
4.219643236,0.09947984166,-2.70846727
4.169555139,0.09366356541,-2.70846727
4.120252364,0.08938475738,-2.70846727
4.07407069,0.08709899388,-2.70846727
4.032812803,0.08696356566,-2.70846727
3.997531655,0.08881460829,-2.70846727
3.968534256,0.09226267954,-2.70846727
3.945545674,0.09683394906,-2.70846727
3.927939726,0.1020886216,-2.70846727
3.914956394,0.1076805332,-2.70846727
3.90585667,0.1133457784,-2.70846727
3.899986302,0.1188365282,-2.70846727
3.896716368,0.1238420333,-2.70846727
3.895306541,0.1280355793,-2.70846727
3.894968903,0.1312801187,-2.70846727
3.895253158,0.1345297701,-2.70846727
3.896593856,0.1387459257,-2.70846727
3.899781063,0.1438045092,-2.70846727
3.905560374,0.1493910206,-2.70846727
3.914565737,0.1552050914,-2.70846727
3.927455389,0.1610096816,-2.70846727
3.944972576,0.1665530699,-2.70846727
3.967882904,0.1715016331,-2.70846727
3.996819702,0.1754259294,-2.70846727
4.032065652,0.177856712,-2.70846727
4.07332019,0.1783995443,-2.70846727
4.1195332,0.1768732746,-2.70846727
4.168899652,0.1734055377,-2.70846727
4.219076594,0.1684134503,-2.70846727
4.267584642,0.1624866183,-2.70846727
4.312263908,0.1562290435,-2.70846727
4.351616813,0.1501452704,-2.70846727
4.384933412,0.1445872029,-2.70846727
4.412206234,0.1397526293,-2.70846727
4.444450342,0.1256753535,-2.803250634
4.465319886,0.1299721575,-2.803250634
