x,y,z
42.59858033,0.00460548219,-17.60857845
42.74413472,-0.003779036497,-18.37416882
42.76464034,-1.718978979e-16,-18.37416882
42.7191374,-0.008336459525,-18.37416882
42.68880099,-0.01379544639,-18.37416882
42.6521853,-0.02028134308,-18.37416882
42.60828055,-0.02791302471,-18.37416882
42.55604966,-0.03678993369,-18.37416882
42.49449414,-0.04697471889,-18.37416882
42.42274737,-0.05847429213,-18.37416882
42.34019222,-0.07121439776,-18.37416882
42.24659631,-0.08501752305,-18.37416882
42.14224609,-0.09958191116,-18.37416882
42.0280547,-0.1144625318,-18.37416882
41.90561293,-0.1290853797,-18.37416882
41.77715598,-0.1427523001,-18.37416882
41.64543538,-0.1547024618,-18.37416882
41.51350481,-0.1641860546,-18.37416882
41.38445381,-0.170553092,-18.37416882
41.26113517,-0.1733535647,-18.37416882
41.14593966,-0.1723769233,-18.37416882
41.04064438,-0.1676817457,-18.37416882
40.94636217,-0.1595473442,-18.37416882
40.86357915,-0.1483940213,-18.37416882
40.79225215,-0.1347144097,-18.37416882
40.73196595,-0.1189613022,-18.37416882
40.68209889,-0.101498579,-18.37416882
40.64200859,-0.08257082015,-18.37416882
40.61123709,-0.06232947596,-18.37416882
40.58967353,-0.04106366471,-18.37416882
40.57728756,-0.01974359158,-18.37416882
40.57306095,4.529143894e-16,-18.37416882
40.57728756,0.01974359158,-18.37416882
40.58967353,0.04106366471,-18.37416882
40.61123709,0.06232947596,-18.37416882
40.64200859,0.08257082015,-18.37416882
40.68209889,0.101498579,-18.37416882
40.73196595,0.1189613022,-18.37416882
40.79225215,0.1347144097,-18.37416882
40.86357915,0.1483940213,-18.37416882
40.94636217,0.1595473442,-18.37416882
41.04064438,0.1676817457,-18.37416882
41.14593966,0.1723769233,-18.37416882
41.26113517,0.1733535647,-18.37416882
41.38445381,0.170553092,-18.37416882
41.51350481,0.1641860546,-18.37416882
41.64543538,0.1547024618,-18.37416882
41.77715598,0.1427523001,-18.37416882
41.90561293,0.1290853797,-18.37416882
42.0280547,0.1144625318,-18.37416882
42.14224609,0.09958191116,-18.37416882
42.24659631,0.08501752305,-18.37416882
42.34019222,0.07121439776,-18.37416882
42.42274737,0.05847429213,-18.37416882
42.49449414,0.04697471889,-18.37416882
42.55604966,0.03678993369,-18.37416882
42.60828055,0.02791302471,-18.37416882
42.6521853,0.02028134308,-18.37416882
42.68880099,0.01379544639,-18.37416882
42.7191374,0.008336459525,-18.37416882
42.74413472,0.003779036497,-18.37416882
42.91931234,-0.002968014024,-19.13975918
42.93491491,-8.986723961e-17,-19.13975918
42.90029179,-0.006547369382,-19.13975918
42.87720833,-0.01083481247,-19.13975918
42.84934629,-0.0159287958,-19.13975918
42.81593701,-0.02192269411,-19.13975918
42.7761909,-0.02889461983,-19.13975918
42.72934763,-0.03689377469,-19.13975918
42.67474706,-0.0459255729,-19.13975918
42.61191875,-0.05593170568,-19.13975918
42.54068496,-0.06677276361,-19.13975918
42.4612627,-0.07821166709,-19.13975918
42.37434585,-0.08989881341,-19.13975918
42.2811441,-0.1013833286,-19.13975918
42.18335786,-0.1121165858,-19.13975918
42.08308097,-0.1215008198,-19.13975918
41.98263803,-0.1289466908,-19.13975918
41.88438199,-0.1339434739,-19.13975918
41.79048682,-0.1361371858,-19.13975918
41.70277593,-0.1353623022,-19.13975918
41.62260641,-0.1316644264,-19.13975918
41.55083013,-0.1252630968,-19.13975918
41.48782203,-0.1164883012,-19.13975918
41.43355407,-0.1057271686,-19.13975918
41.38771559,-0.09333542259,-19.13975918
41.34984032,-0.07959902894,-19.13975918
41.31944975,-0.06471051984,-19.13975918
41.29621255,-0.04879059843,-19.13975918
41.28007095,-0.03207235594,-19.13975918
41.27102573,-0.01533925583,-19.13975918
41.26821383,2.333443816e-16,-19.13975918
41.27102573,0.01533925583,-19.13975918
41.28007095,0.03207235594,-19.13975918
41.29621255,0.04879059843,-19.13975918
41.31944975,0.06471051984,-19.13975918
41.34984032,0.07959902894,-19.13975918
41.38771559,0.09333542259,-19.13975918
41.43355407,0.1057271686,-19.13975918
41.48782203,0.1164883012,-19.13975918
41.55083013,0.1252630968,-19.13975918
41.62260641,0.1316644264,-19.13975918
41.70277593,0.1353623022,-19.13975918
41.79048682,0.1361371858,-19.13975918
41.88438199,0.1339434739,-19.13975918
41.98263803,0.1289466908,-19.13975918
42.08308097,0.1215008198,-19.13975918
42.18335786,0.1121165858,-19.13975918
42.2811441,0.1013833286,-19.13975918
42.37434585,0.08989881341,-19.13975918
42.4612627,0.07821166709,-19.13975918
42.54068496,0.06677276361,-19.13975918
42.61191875,0.05593170568,-19.13975918
42.67474706,0.0459255729,-19.13975918
42.72934763,0.03689377469,-19.13975918
42.7761909,0.02889461983,-19.13975918
42.81593701,0.02192269411,-19.13975918
42.84934629,0.0159287958,-19.13975918
42.87720833,0.01083481247,-19.13975918
42.90029179,0.006547369382,-19.13975918
42.91931234,0.002968014024,-19.13975918
43.12444412,-0.002179621173,-19.90534955
43.1355558,0.0,-19.90534955
43.11089808,-0.004808196708,-19.90534955
43.09445823,-0.007956777238,-19.90534955
43.07461471,-0.01169766826,-19.90534955
43.05081987,-0.0160994494,-19.90534955
43.02251105,-0.02121949193,-19.90534955
42.98914633,-0.0270939268,-19.90534955
42.95025506,-0.03372672018,-19.90534955
42.90550161,-0.0410750593,-19.90534955
42.85475873,-0.04903657096,-19.90534955
42.79818026,-0.05743709366,-19.90534955
42.73625975,-0.06601983384,-19.90534955
42.66985817,-0.07445364427,-19.90534955
42.60018626,-0.08233541998,-19.90534955
42.52873533,-0.08922603084,-19.90534955
42.45716167,-0.09469237482,-19.90534955
42.38714252,-0.09835923043,-19.90534955
42.32022843,-0.09996626291,-19.90534955
42.25772106,-0.09939180504,-19.90534955
42.20059039,-0.09666906864,-19.90534955
42.1494467,-0.091959393,-19.90534955
42.10456065,-0.08550503326,-19.90534955
42.06591567,-0.07759043768,-19.90534955
42.03329428,-0.06847691151,-19.90534955
42.00636921,-0.05837458236,-19.90534955
41.984807,-0.04742514479,-19.90534955
41.96838388,-0.03571845026,-19.90534955
41.95707762,-0.02342982592,-19.90534955
41.95090578,-0.01114943269,-19.90534955
41.94919085,0.0,-19.90534955
41.95090578,0.01114943269,-19.90534955
41.95707762,0.02342982592,-19.90534955
41.96838388,0.03571845026,-19.90534955
41.984807,0.04742514479,-19.90534955
42.00636921,0.05837458236,-19.90534955
42.03329428,0.06847691151,-19.90534955
42.06591567,0.07759043768,-19.90534955
42.10456065,0.08550503326,-19.90534955
42.1494467,0.091959393,-19.90534955
42.20059039,0.09666906864,-19.90534955
42.25772106,0.09939180504,-19.90534955
42.32022843,0.09996626291,-19.90534955
42.38714252,0.09835923043,-19.90534955
42.45716167,0.09469237482,-19.90534955
42.52873533,0.08922603084,-19.90534955
42.60018626,0.08233541998,-19.90534955
42.66985817,0.07445364427,-19.90534955
42.73625975,0.06601983384,-19.90534955
42.79818026,0.05743709366,-19.90534955
42.85475873,0.04903657096,-19.90534955
42.90550161,0.0410750593,-19.90534955
42.95025506,0.03372672018,-19.90534955
42.98914633,0.0270939268,-19.90534955
43.02251105,0.02121949193,-19.90534955
43.05081987,0.0160994494,-19.90534955
43.07461471,0.01169766826,-19.90534955
43.09445823,0.007956777238,-19.90534955
43.11089808,0.004808196708,-19.90534955
43.12444412,0.002179621173,-19.90534955
43.12504285,-0.001538296654,-19.90735659
43.11223619,-0.003391914171,-19.90976847
43.09670751,-0.005609986833,-19.91264481
43.07798375,-0.00824209084,-19.91604368
43.0555931,-0.01133173388,-19.91999841
43.02904924,-0.01491451519,-19.92452856
42.99780729,-0.01901753569,-19.9296733
42.96154798,-0.02363181574,-19.93534791
42.91989944,-0.02873046691,-19.94152406
42.8728466,-0.03423198938,-19.9480134
42.82048525,-0.04001713423,-19.95465129
42.76324785,-0.04590775459,-19.96118168
42.70186669,-0.05167782154,-19.96730737
42.63733931,-0.05705600983,-19.97270932
42.57087411,-0.06174960132,-19.97708202
42.50380376,-0.06547153035,-19.98016278
42.4374765,-0.06797370313,-19.98176673
42.37316116,-0.06908319932,-19.98181201
42.31197046,-0.06871726247,-19.98030797
42.2547754,-0.0668941267,-19.97736066
42.20220049,-0.06371582564,-19.97314141
42.15460825,-0.05933797469,-19.96784886
42.11212599,-0.05394483453,-19.96168741
42.07469172,-0.04770627395,-19.95482609
42.04211228,-0.04075752355,-19.94738861
42.01416902,-0.03319092614,-19.93944138
41.9907059,-0.02505992333,-19.93101639
41.97183406,-0.01648056362,-19.92220257
41.95797166,-0.007863007845,-19.91338715
41.95797166,0.007863007845,-19.91338715
41.97183406,0.01648056362,-19.92220257
41.9907059,0.02505992333,-19.93101639
42.01416902,0.03319092614,-19.93944138
42.04211228,0.04075752355,-19.94738861
42.07469172,0.04770627395,-19.95482609
42.11212599,0.05394483453,-19.96168741
42.15460825,0.05933797469,-19.96784886
42.20220049,0.06371582564,-19.97314141
42.2547754,0.0668941267,-19.97736066
42.31197046,0.06871726247,-19.98030797
42.37316116,0.06908319932,-19.98181201
42.4374765,0.06797370313,-19.98176673
42.50380376,0.06547153035,-19.98016278
42.57087411,0.06174960132,-19.97708202
42.63733931,0.05705600983,-19.97270932
42.70186669,0.05167782154,-19.96730737
42.76324785,0.04590775459,-19.96118168
42.82048525,0.04001713423,-19.95465129
42.8728466,0.03423198938,-19.9480134
42.91989944,0.02873046691,-19.94152406
42.96154798,0.02363181574,-19.93534791
42.99780729,0.01901753569,-19.9296733
43.02904924,0.01491451519,-19.92452856
43.0555931,0.01133173388,-19.91999841
43.07798375,0.00824209084,-19.91604368
43.09670751,0.005609986833,-19.91264481
43.11223619,0.003391914171,-19.90976847
43.12504285,0.001538296654,-19.90735659
43.12529081,-1.183775724e-17,-19.90818781
43.11279024,-3.50873276e-17,-19.91159817
43.09763859,-6.527942016e-17,-19.91566468
43.07937791,-8.511535436e-17,-19.9204691
43.05756733,-6.00564102e-17,-19.92605732
43.03175162,-5.506764306e-17,-19.9324558
43.00138474,-4.967128326e-17,-19.93972038
42.96620859,-1.981776104e-17,-19.94772847
42.92583649,-3.366344521e-17,-19.95644093
42.88029816,-5.702765022e-17,-19.96558953
42.82966533,-5.011264711e-17,-19.97494261
42.77434497,-3.948863125e-17,-19.98413918
42.71501653,-1.144991204e-17,-19.99276114
42.6525907,-3.998163699e-17,-20.00036064
42.58816113,-3.469446952e-17,-20.00650955
42.52292958,-4.154370891e-17,-20.0108403
42.45811131,-1.29096808e-17,-20.01309457
42.3948612,-4.250359265e-17,-20.01315817
42.33421513,-2.109477702e-17,-20.01104427
42.27700323,3.477461481e-18,-20.00690112
42.22385449,-6.480920652e-18,-20.00096812
42.17516724,3.669660446e-17,-19.99352287
42.13112561,6.472197573e-17,-19.98485103
42.09172938,9.013671457e-17,-19.97518881
42.05683845,1.869208488e-16,-19.9647087
42.02628003,1.831445616e-16,-19.95350329
41.99992414,7.241657316e-17,-19.94161593
41.97793554,1.271477668e-16,-19.92917095
41.96089694,6.106999713e-17,-19.91671472
46.50549423,-8.253143341e-17,0.7655903673
46.25351232,-0.01165254492,0.7655903673
45.94643758,-0.02570332503,0.7655903673
45.57392417,-0.04253054283,0.7655903673
45.12451443,-0.06251802027,0.7655903673
44.58593177,-0.08602796601,0.7655903673
43.94560742,-0.1133627191,0.7655903673
43.1914983,-0.1447162014,0.7655903673
42.31322906,-0.1801150868,0.7655903673
41.3035369,-0.2193263533,0.7655903673
40.1599173,-0.2617999599,0.7655903673
38.88625344,-0.3066366638,0.7655903673
37.49410661,-0.352494597,0.7655903673
36.00329358,-0.3976250061,0.7655903673
34.44141806,-0.4399893681,0.7655903673
32.84220583,-0.4773230205,0.7655903673
31.24277511,-0.5074819959,0.7655903673
29.68028292,-0.5285494366,0.7655903673
28.18855269,-0.5393447863,0.7655903673
26.79534217,-0.5392793699,0.7655903673
25.52064725,-0.5286852621,0.7655903673
24.37622388,-0.5083600119,0.7655903673
23.36613869,-0.4796421561,0.7655903673
22.48806098,-0.4439677888,0.7655903673
21.73490225,-0.4026936026,0.7655903673
21.09648976,-0.3568746506,0.7655903673
20.56106985,-0.3070990865,0.7655903673
20.1165765,-0.2531741995,0.7655903673
19.75166147,-0.1937290457,0.7655903673
19.45697957,-0.1236857662,0.7655903673
19.2531992,3.226715258e-16,0.7655903673
19.45697957,0.1236857662,0.7655903673
19.75166147,0.1937290457,0.7655903673
20.1165765,0.2531741995,0.7655903673
20.56106985,0.3070990865,0.7655903673
21.09648976,0.3568746506,0.7655903673
21.73490225,0.4026936026,0.7655903673
22.48806098,0.4439677888,0.7655903673
23.36613869,0.4796421561,0.7655903673
24.37622388,0.5083600119,0.7655903673
25.52064725,0.5286852621,0.7655903673
26.79534217,0.5392793699,0.7655903673
28.18855269,0.5393447863,0.7655903673
29.68028292,0.5285494366,0.7655903673
31.24277511,0.5074819959,0.7655903673
32.84220583,0.4773230205,0.7655903673
34.44141806,0.4399893681,0.7655903673
36.00329358,0.3976250061,0.7655903673
37.49410661,0.352494597,0.7655903673
38.88625344,0.3066366638,0.7655903673
40.1599173,0.2617999599,0.7655903673
41.3035369,0.2193263533,0.7655903673
42.31322906,0.1801150868,0.7655903673
43.1914983,0.1447162014,0.7655903673
43.94560742,0.1133627191,0.7655903673
44.58593177,0.08602796601,0.7655903673
45.12451443,0.06251802027,0.7655903673
45.57392417,0.04253054283,0.7655903673
45.94643758,0.02570332503,0.7655903673
46.25351232,0.01165254492,0.7655903673
46.06162681,-1.58991276e-16,1.531180735
45.82486965,-0.01238681829,1.531180735
45.53634409,-0.0273233066,1.531180735
45.18632664,-0.04521176494,1.531180735
44.76404791,-0.0664606428,1.531180735
44.25796764,-0.09145568806,1.531180735
43.65626919,-0.120518998,1.531180735
42.94762776,-0.1538565915,1.531180735
42.12228353,-0.1914959398,1.531180735
41.17339928,-0.2331900055,1.531180735
40.09860726,-0.2783545301,1.531180735
38.90154106,-0.3260284622,1.531180735
37.59304934,-0.3747803731,1.531180735
36.19174044,-0.422747824,1.531180735
34.72354462,-0.4677450159,1.531180735
33.2201535,-0.507351178,1.531180735
31.71645945,-0.5392595513,1.531180735
30.24740788,-0.5614180946,1.531180735
28.84482958,-0.5725377445,1.531180735
27.53487223,-0.5719827542,1.531180735
26.33639971,-0.5600811673,1.531180735
25.26053702,-0.5376912863,1.531180735
24.31118395,-0.5062289837,1.531180735
23.48622505,-0.467234512,1.531180735
22.77908224,-0.4221565601,1.531180735
22.18030213,-0.3721276981,1.531180735
21.67900086,-0.3178004955,1.531180735
21.26410764,-0.2590788051,1.531180735
20.92537276,-0.194878102,1.531180735
20.65438668,-0.1211302506,1.531180735
20.46919706,6.091953057e-16,1.531180735
20.65438668,0.1211302506,1.531180735
20.92537276,0.194878102,1.531180735
21.26410764,0.2590788051,1.531180735
21.67900086,0.3178004955,1.531180735
22.18030213,0.3721276981,1.531180735
22.77908224,0.4221565601,1.531180735
23.48622505,0.467234512,1.531180735
24.31118395,0.5062289837,1.531180735
25.26053702,0.5376912863,1.531180735
26.33639971,0.5600811673,1.531180735
27.53487223,0.5719827542,1.531180735
28.84482958,0.5725377445,1.531180735
30.24740788,0.5614180946,1.531180735
31.71645945,0.5392595513,1.531180735
33.2201535,0.507351178,1.531180735
34.72354462,0.4677450159,1.531180735
36.19174044,0.422747824,1.531180735
37.59304934,0.3747803731,1.531180735
38.90154106,0.3260284622,1.531180735
40.09860726,0.2783545301,1.531180735
41.17339928,0.2331900055,1.531180735
42.12228353,0.1914959398,1.531180735
42.94762776,0.1538565915,1.531180735
43.65626919,0.120518998,1.531180735
44.25796764,0.09145568806,1.531180735
44.76404791,0.0664606428,1.531180735
45.18632664,0.04521176494,1.531180735
45.53634409,0.0273233066,1.531180735
45.82486965,0.01238681829,1.531180735
45.64152108,-2.293189831e-16,2.296771102
45.41945586,-0.01296561451,2.296771102
45.14883075,-0.02860029566,2.296771102
44.82052301,-0.04732536145,2.296771102
44.42442786,-0.06956871242,2.296771102
43.94971603,-0.09573471324,2.296771102
43.3852974,-0.126161097,2.296771102
42.72054111,-0.1610634073,2.296771102
41.94628241,-0.2004696674,2.296771102
41.0560959,-0.2441218504,2.296771102
40.04774719,-0.2914087637,2.296771102
38.9246303,-0.3413201897,2.296771102
37.69690751,-0.3923536699,2.296771102
36.38202201,-0.4425568505,2.296771102
35.00428969,-0.4896262128,2.296771102
33.59343887,-0.5310167726,2.296771102
32.18221243,-0.5642910539,2.296771102
30.80341858,-0.5872892105,2.296771102
29.4869606,-0.5986336962,2.296771102
28.25742637,-0.5976507962,2.296771102
27.13258052,-0.5846632174,2.296771102
26.12293203,-0.5605780599,2.296771102
25.23221255,-0.5268715502,2.296771102
24.45850765,-0.4851672264,2.296771102
23.79572437,-0.4369868571,2.296771102
23.23509412,-0.3835250701,2.296771102
22.76655791,-0.3254875779,2.296771102
22.37998136,-0.2628637554,2.296771102
22.06613762,-0.1948271032,2.296771102
21.81748656,-0.1182204485,2.296771102
21.64967059,8.612008662e-16,2.296771102
21.81748656,0.1182204485,2.296771102
22.06613762,0.1948271032,2.296771102
22.37998136,0.2628637554,2.296771102
22.76655791,0.3254875779,2.296771102
23.23509412,0.3835250701,2.296771102
23.79572437,0.4369868571,2.296771102
24.45850765,0.4851672264,2.296771102
25.23221255,0.5268715502,2.296771102
26.12293203,0.5605780599,2.296771102
27.13258052,0.5846632174,2.296771102
28.25742637,0.5976507962,2.296771102
29.4869606,0.5986336962,2.296771102
30.80341858,0.5872892105,2.296771102
32.18221243,0.5642910539,2.296771102
33.59343887,0.5310167726,2.296771102
35.00428969,0.4896262128,2.296771102
36.38202201,0.4425568505,2.296771102
37.69690751,0.3923536699,2.296771102
38.9246303,0.3413201897,2.296771102
40.04774719,0.2914087637,2.296771102
41.0560959,0.2441218504,2.296771102
41.94628241,0.2004696674,2.296771102
42.72054111,0.1610634073,2.296771102
43.3852974,0.126161097,2.296771102
43.94971603,0.09573471324,2.296771102
44.42442786,0.06956871242,2.296771102
44.82052301,0.04732536145,2.296771102
45.14883075,0.02860029566,2.296771102
45.41945586,0.01296561451,2.296771102
45.24541728,-2.934525571e-16,3.062361469
45.03752406,-0.01339777729,3.062361469
44.78416627,-0.02955380182,3.062361469
44.47680094,-0.04890361886,3.062361469
44.10596469,-0.07188969765,3.062361469
43.66151459,-0.09893037688,3.062361469
43.13306192,-0.1303751369,3.062361469
42.51064609,-0.1664466205,3.062361469
41.78567728,-0.2071731722,3.062361469
40.95212856,-0.2522886284,3.062361469
40.00789541,-0.3011617314,3.062361469
38.9561421,-0.3527450239,3.062361469
37.80637006,-0.4054824972,3.062361469
36.57489953,-0.4573543025,3.062361469
35.28448963,-0.5059670869,3.062361469
33.96297458,-0.5486817418,3.062361469
32.64102238,-0.5829603392,3.062361469
31.34937669,-0.6065610576,3.062361469
30.11607707,-0.618036772,3.062361469
28.96420089,-0.6166843913,3.062361469
27.91044578,-0.6028200685,3.062361469
26.96471953,-0.5773884196,3.062361469
26.13058468,-0.5419100128,3.062361469
25.40631419,-0.498071979,3.062361469
24.78627584,-0.4474513221,3.062361469
24.26235239,-0.3912901418,3.062361469
23.82526658,-0.3303366464,3.062361469
23.46576393,-0.2646552581,3.062361469
23.17556805,-0.1936505157,3.062361469
22.94794488,-0.1149823201,3.062361469
22.79633706,1.080356838e-15,3.062361469
22.94794488,0.1149823201,3.062361469
23.17556805,0.1936505157,3.062361469
23.46576393,0.2646552581,3.062361469
23.82526658,0.3303366464,3.062361469
24.26235239,0.3912901418,3.062361469
24.78627584,0.4474513221,3.062361469
25.40631419,0.498071979,3.062361469
26.13058468,0.5419100128,3.062361469
26.96471953,0.5773884196,3.062361469
27.91044578,0.6028200685,3.062361469
28.96420089,0.6166843913,3.062361469
30.11607707,0.618036772,3.062361469
31.34937669,0.6065610576,3.062361469
32.64102238,0.5829603392,3.062361469
33.96297458,0.5486817418,3.062361469
35.28448963,0.5059670869,3.062361469
36.57489953,0.4573543025,3.062361469
37.80637006,0.4054824972,3.062361469
38.9561421,0.3527450239,3.062361469
40.00789541,0.3011617314,3.062361469
40.95212856,0.2522886284,3.062361469
41.78567728,0.2071731722,3.062361469
42.51064609,0.1664466205,3.062361469
43.13306192,0.1303751369,3.062361469
43.66151459,0.09893037688,3.062361469
44.10596469,0.07188969765,3.062361469
44.47680094,0.04890361886,3.062361469
44.78416627,0.02955380182,3.062361469
45.03752406,0.01339777729,3.062361469
44.87355564,-3.513300005e-16,3.827951837
44.67932733,-0.01369215034,3.827951837
44.44261937,-0.03020333469,3.827951837
44.15544807,-0.04997882365,3.827951837
43.80896881,-0.07347106701,3.827951837
43.39370094,-0.1011080143,3.827951837
42.89993264,-0.1332472388,3.827951837
42.31835039,-0.1701162031,3.827951837
41.64091973,-0.2117433566,3.827951837
40.86199903,-0.2578570795,3.827951837
39.97961026,-0.3078125037,3.827951837
38.99669743,-0.3605361422,3.827951837
37.92212593,-0.4144348643,3.827951837
36.77113421,-0.4674423963,3.827951837
35.56498081,-0.5171017664,3.827951837
34.3296733,-0.5607080231,3.827951837
33.0938776,-0.5956512428,3.827951837
31.88634389,-0.619631909,3.827951837
30.73331031,-0.6311511024,3.827951837
29.65639212,-0.6294844351,3.827951837
28.67125161,-0.6149403769,3.827951837
27.78721016,-0.5884904521,3.827951837
27.00766055,-0.5516845287,3.827951837
26.33105007,-0.506254817,3.827951837
25.75218381,-0.4538167839,3.827951837
25.26356363,-0.3956462885,3.827951837
24.85665247,-0.3325240135,3.827951837
24.52302163,-0.2645795207,3.827951837
24.25527602,-0.191422806,3.827951837
24.04742731,-0.1114418256,3.827951837
23.91091373,1.268331851e-15,3.827951837
24.04742731,0.1114418256,3.827951837
24.25527602,0.191422806,3.827951837
24.52302163,0.2645795207,3.827951837
24.85665247,0.3325240135,3.827951837
25.26356363,0.3956462885,3.827951837
25.75218381,0.4538167839,3.827951837
26.33105007,0.506254817,3.827951837
27.00766055,0.5516845287,3.827951837
27.78721016,0.5884904521,3.827951837
28.67125161,0.6149403769,3.827951837
29.65639212,0.6294844351,3.827951837
30.73331031,0.6311511024,3.827951837
31.88634389,0.619631909,3.827951837
33.0938776,0.5956512428,3.827951837
34.3296733,0.5607080231,3.827951837
35.56498081,0.5171017664,3.827951837
36.77113421,0.4674423963,3.827951837
37.92212593,0.4144348643,3.827951837
38.99669743,0.3605361422,3.827951837
39.97961026,0.3078125037,3.827951837
40.86199903,0.2578570795,3.827951837
41.64091973,0.2117433566,3.827951837
42.31835039,0.1701162031,3.827951837
42.89993264,0.1332472388,3.827951837
43.39370094,0.1011080143,3.827951837
43.80896881,0.07347106701,3.827951837
44.15544807,0.04997882365,3.827951837
44.44261937,0.03020333469,3.827951837
44.67932733,0.01369215034,3.827951837
44.5261764,-4.028893158e-16,4.593542204
44.34511876,-0.01385757737,4.593542204
44.12445878,-0.03056840388,4.593542204
43.85675204,-0.05058326228,4.593542204
43.53375066,-0.07436028904,4.593542204
43.14661272,-0.1023329608,4.593542204
42.68627944,-0.1348635237,4.593542204
42.14406174,-0.1721821269,4.593542204
41.51246135,-0.214317123,4.593542204
40.78620911,-0.260993944,4.593542204
39.96345007,-0.3115601514,4.593542204
39.04691722,-0.3649267221,4.593542204
38.04486407,-0.419478781,4.593542204
36.97148729,-0.4731233489,4.593542204
35.8465996,-0.5233643795,4.593542204
34.69444768,-0.5674575538,4.593542204
33.54176641,-0.6027476002,4.593542204
32.41538184,-0.626900038,4.593542204
31.33979166,-0.638380818,4.593542204
30.33519637,-0.6364518229,4.593542204
29.41625412,-0.6214127987,4.593542204
28.59171455,-0.5942522442,4.593542204
27.86480035,-0.5565352551,4.593542204
27.23412072,-0.5100217873,4.593542204
26.69489544,-0.4563500712,4.593542204
26.24021452,-0.3968168855,4.593542204
25.86224117,-0.3322259917,4.593542204
25.55332071,-0.262762751,4.593542204
25.30687354,-0.1882184405,4.593542204
25.11759953,-0.1076249254,4.593542204
24.99511787,1.426794535e-15,4.593542204
25.11759953,0.1076249254,4.593542204
25.30687354,0.1882184405,4.593542204
25.55332071,0.262762751,4.593542204
25.86224117,0.3322259917,4.593542204
26.24021452,0.3968168855,4.593542204
26.69489544,0.4563500712,4.593542204
27.23412072,0.5100217873,4.593542204
27.86480035,0.5565352551,4.593542204
28.59171455,0.5942522442,4.593542204
29.41625412,0.6214127987,4.593542204
30.33519637,0.6364518229,4.593542204
31.33979166,0.638380818,4.593542204
32.41538184,0.626900038,4.593542204
33.54176641,0.6027476002,4.593542204
34.69444768,0.5674575538,4.593542204
35.8465996,0.5233643795,4.593542204
36.97148729,0.4731233489,4.593542204
38.04486407,0.419478781,4.593542204
39.04691722,0.3649267221,4.593542204
39.96345007,0.3115601514,4.593542204
40.78620911,0.260993944,4.593542204
41.51246135,0.214317123,4.593542204
42.14406174,0.1721821269,4.593542204
42.68627944,0.1348635237,4.593542204
43.14661272,0.1023329608,4.593542204
43.53375066,0.07436028904,4.593542204
43.85675204,0.05058326228,4.593542204
44.12445878,0.03056840388,4.593542204
44.34511876,0.01385757737,4.593542204
44.20352033,-4.480683662e-16,5.359132571
44.03515184,-0.01390287862,5.359132571
43.82995346,-0.03066846724,5.359132571
43.58100054,-0.05074913561,5.359132571
43.28062043,-0.07460470632,5.359132571
42.92058705,-0.1026703784,5.359132571
42.49247136,-0.1353098839,5.359132571
41.98818659,-0.1727540721,5.359132571
41.40075199,-0.2150310107,5.359132571
40.7252583,-0.2618655198,5.359132571
39.95997032,-0.3126032169,5.359132571
39.10741887,-0.3661493225,5.359132571
38.17526911,-0.4208815455,5.359132571
37.1767149,-0.4746985748,5.359132571
36.13017642,-0.525088168,5.359132571
35.05820359,-0.5692913115,5.359132571
33.98566949,-0.6046322293,5.359132571
32.93754375,-0.6287626626,5.359132571
31.93664319,-0.6401289801,5.359132571
31.00179997,-0.6379863912,5.359132571
30.14669876,-0.6226249654,5.359132571
29.37953208,-0.5950409152,5.359132571
28.70335248,-0.5568014591,5.359132571
28.11691925,-0.5096781409,5.359132571
27.61584521,-0.4553173244,5.359132571
27.19377867,-0.3950247392,5.359132571
26.84354488,-0.3296184543,5.359132571
26.55821375,-0.2593308549,5.359132571
26.33195861,-0.1841117244,5.359132571
26.16011296,-0.1035575447,5.359132571
26.05065226,1.557399435e-15,5.359132571
26.16011296,0.1035575447,5.359132571
26.33195861,0.1841117244,5.359132571
26.55821375,0.2593308549,5.359132571
26.84354488,0.3296184543,5.359132571
27.19377867,0.3950247392,5.359132571
27.61584521,0.4553173244,5.359132571
28.11691925,0.5096781409,5.359132571
28.70335248,0.5568014591,5.359132571
29.37953208,0.5950409152,5.359132571
30.14669876,0.6226249654,5.359132571
31.00179997,0.6379863912,5.359132571
31.93664319,0.6401289801,5.359132571
32.93754375,0.6287626626,5.359132571
33.98566949,0.6046322293,5.359132571
35.05820359,0.5692913115,5.359132571
36.13017642,0.525088168,5.359132571
37.1767149,0.4746985748,5.359132571
38.17526911,0.4208815455,5.359132571
39.10741887,0.3661493225,5.359132571
39.95997032,0.3126032169,5.359132571
40.7252583,0.2618655198,5.359132571
41.40075199,0.2150310107,5.359132571
41.98818659,0.1727540721,5.359132571
42.49247136,0.1353098839,5.359132571
42.92058705,0.1026703784,5.359132571
43.28062043,0.07460470632,5.359132571
43.58100054,0.05074913561,5.359132571
43.82995346,0.03066846724,5.359132571
44.03515184,0.01390287862,5.359132571
43.9058406,-4.868018178e-16,6.124722938
43.7496893,-0.0138363348,6.124722938
43.55937778,-0.03052179235,6.124722938
43.32848203,-0.0505066746,6.124722938
43.04988355,-0.07424876522,6.124722938
42.71594959,-0.1021814426,6.124722938
42.31885798,-0.134666957,6.124722938
41.85110262,-0.1719350078,6.124722938
41.30620186,-0.2140132042,6.124722938
40.67959397,-0.2606279286,6.124722938
39.96966018,-0.311128093,6.124722938
39.17873781,-0.3644222709,6.124722938
38.3139266,-0.4188940997,6.124722938
37.38745576,-0.4724510459,6.124722938
36.41640519,-0.5225859865,6.124722938
35.42169084,-0.566548196,6.124722938
34.42639198,-0.601664546,6.124722938
33.45368827,-0.6255927359,6.124722938
32.52477432,-0.6367740543,6.124722938
31.65715966,-0.6344636148,6.124722938
30.8635859,-0.6189409423,6.124722938
30.15170305,-0.5912013325,6.124722938
29.52439382,-0.5528019301,6.124722938
28.98055631,-0.5055108134,6.124722938
28.51617547,-0.4509688527,6.124722938
28.12542913,-0.3904795761,6.124722938
27.80176772,-0.324867173,6.124722938
27.53893841,-0.2544027995,6.124722938
27.33180781,-0.1791732574,6.124722938
27.17629111,-0.09926480892,6.124722938
27.07888621,1.661477095e-15,6.124722938
27.17629111,0.09926480892,6.124722938
27.33180781,0.1791732574,6.124722938
27.53893841,0.2544027995,6.124722938
27.80176772,0.324867173,6.124722938
28.12542913,0.3904795761,6.124722938
28.51617547,0.4509688527,6.124722938
28.98055631,0.5055108134,6.124722938
29.52439382,0.5528019301,6.124722938
30.15170305,0.5912013325,6.124722938
30.8635859,0.6189409423,6.124722938
31.65715966,0.6344636148,6.124722938
32.52477432,0.6367740543,6.124722938
33.45368827,0.6255927359,6.124722938
34.42639198,0.601664546,6.124722938
35.42169084,0.566548196,6.124722938
36.41640519,0.5225859865,6.124722938
37.38745576,0.4724510459,6.124722938
38.3139266,0.4188940997,6.124722938
39.17873781,0.3644222709,6.124722938
39.96966018,0.311128093,6.124722938
40.67959397,0.2606279286,6.124722938
41.30620186,0.2140132042,6.124722938
41.85110262,0.1719350078,6.124722938
42.31885798,0.134666957,6.124722938
42.71594959,0.1021814426,6.124722938
43.04988355,0.07424876522,6.124722938
43.32848203,0.0505066746,6.124722938
43.55937778,0.03052179235,6.124722938
43.7496893,0.0138363348,6.124722938
43.63340278,-5.190211388e-16,6.890313306
43.48900315,-0.01366568707,6.890313306
43.31301156,-0.0301454565,6.890313306
43.09948578,-0.04988414038,6.890313306
42.84184064,-0.07333401586,6.890313306
42.53301449,-0.1009233422,6.890313306
42.16576948,-0.1330101252,6.890313306
41.73315871,-0.1698211924,6.890313306
41.2291815,-0.2113835334,6.890313306
40.64961137,-0.2574271164,6.890313306
39.99294258,-0.3073090234,6.890313306
39.26132749,-0.3599496636,6.890313306
38.46132301,-0.4137510288,6.890313306
37.60423125,-0.4666452911,6.890313306
36.70584331,-0.5161503027,6.890313306
35.78550319,-0.5595450296,6.890313306
34.86456345,-0.5941805639,6.890313306
33.9644795,-0.617738946,6.890313306
33.10488176,-0.6286699108,6.890313306
32.30200259,-0.6262346073,6.890313306
31.56767079,-0.6107012287,6.890313306
30.90900867,-0.5830561114,6.890313306
30.32872974,-0.5448349809,6.890313306
29.82586006,-0.4977884256,6.890313306
29.39673646,-0.4435391338,6.890313306
29.03603837,-0.3833780426,6.890313306
28.73780572,-0.3181278179,6.890313306
28.4964174,-0.2480906129,6.890313306
28.30737629,-0.1734699331,6.890313306
28.16712956,-0.0947710432,6.890313306
28.08085562,1.740034065e-15,6.890313306
28.16712956,0.0947710432,6.890313306
28.30737629,0.1734699331,6.890313306
28.4964174,0.2480906129,6.890313306
28.73780572,0.3181278179,6.890313306
29.03603837,0.3833780426,6.890313306
29.39673646,0.4435391338,6.890313306
29.82586006,0.4977884256,6.890313306
30.32872974,0.5448349809,6.890313306
30.90900867,0.5830561114,6.890313306
31.56767079,0.6107012287,6.890313306
32.30200259,0.6262346073,6.890313306
33.10488176,0.6286699108,6.890313306
33.9644795,0.617738946,6.890313306
34.86456345,0.5941805639,6.890313306
35.78550319,0.5595450296,6.890313306
36.70584331,0.5161503027,6.890313306
37.60423125,0.4666452911,6.890313306
38.46132301,0.4137510288,6.890313306
39.26132749,0.3599496636,6.890313306
39.99294258,0.3073090234,6.890313306
40.64961137,0.2574271164,6.890313306
41.2291815,0.2113835334,6.890313306
41.73315871,0.1698211924,6.890313306
42.16576948,0.1330101252,6.890313306
42.53301449,0.1009233422,6.890313306
42.84184064,0.07333401586,6.890313306
43.09948578,0.04988414038,6.890313306
43.31301156,0.0301454565,6.890313306
43.48900315,0.01366568707,6.890313306
43.38647294,-5.446576585e-16,7.655903673
43.25336577,-0.01339865313,7.655903673
43.09113485,-0.02955648522,7.655903673
42.89430109,-0.04890970844,7.655903673
42.65679209,-0.07190188243,7.655903673
42.37209542,-0.09895309278,7.655903673
42.03353517,-0.1304145422,7.655903673
41.63470253,-0.1665085924,7.655903673
41.17005973,-0.207261465,7.655903673
40.63570344,-0.2524085869,7.655903673
40.03023759,-0.3013197233,7.655903673
39.35563784,-0.3529349785,7.655903673
38.61794049,-0.4056862071,7.655903673
37.82755761,-0.4575450372,7.655903673
36.99904224,-0.5060726977,7.655903673
36.15022762,-0.5485976747,7.655903673
35.30080584,-0.5825152793,7.655903673
34.47057308,-0.6055489257,7.655903673
33.677653,-0.6161693505,7.655903673
32.93704593,-0.613649423,7.655903673
32.25969804,-0.5982452989,7.655903673
31.65221892,-0.5709269,7.655903673
31.11715378,-0.5331980335,7.655903673
30.65364637,-0.486778802,7.655903673
30.25836575,-0.4332619575,7.655903673
29.9264658,-0.3739162166,7.655903673
29.65254152,-0.3095556196,7.655903673
29.43155975,-0.2405060217,7.655903673
29.25960521,-0.1670684843,7.655903673
29.13360965,-0.09010053792,7.655903673
29.05758186,1.794062805e-15,7.655903673
29.13360965,0.09010053792,7.655903673
29.25960521,0.1670684843,7.655903673
29.43155975,0.2405060217,7.655903673
29.65254152,0.3095556196,7.655903673
29.9264658,0.3739162166,7.655903673
30.25836575,0.4332619575,7.655903673
30.65364637,0.486778802,7.655903673
31.11715378,0.5331980335,7.655903673
31.65221892,0.5709269,7.655903673
32.25969804,0.5982452989,7.655903673
32.93704593,0.613649423,7.655903673
33.677653,0.6161693505,7.655903673
34.47057308,0.6055489257,7.655903673
35.30080584,0.5825152793,7.655903673
36.15022762,0.5485976747,7.655903673
36.99904224,0.5060726977,7.655903673
37.82755761,0.4575450372,7.655903673
38.61794049,0.4056862071,7.655903673
39.35563784,0.3529349785,7.655903673
40.03023759,0.3013197233,7.655903673
40.63570344,0.2524085869,7.655903673
41.17005973,0.207261465,7.655903673
41.63470253,0.1665085924,7.655903673
42.03353517,0.1304145422,7.655903673
42.37209542,0.09895309278,7.655903673
42.65679209,0.07190188243,7.655903673
42.89430109,0.04890970844,7.655903673
43.09113485,0.02955648522,7.655903673
43.25336577,0.01339865313,7.655903673
43.1653172,-5.636427063e-16,8.42149404
43.04304957,-0.01304295067,8.42149404
42.8940277,-0.02877190404,8.42149404
42.71321726,-0.04761155424,8.42149404
42.49503833,-0.06999378913,8.42149404
42.23350602,-0.09632770996,8.42149404
41.92248439,-0.1269553619,8.42149404
41.55608169,-0.1620931745,8.42149404
41.12920536,-0.2017664658,8.42149404
40.63826315,-0.2457178435,8.42149404
40.08196525,-0.293333908,8.42149404
39.46211875,-0.3435816931,8.42149404
38.7842612,-0.3949335086,8.42149404
38.0579511,-0.4454140112,8.42149404
37.29655345,-0.4926447528,8.42149404
36.5164511,-0.5340219935,8.42149404
35.7357411,-0.5670036882,8.42149404
34.97262463,-0.5893703079,8.42149404
34.24377553,-0.5996251742,8.42149404
33.56300683,-0.5970581162,8.42149404
32.94041227,-0.5819126274,8.42149404
32.38210374,-0.5551353461,8.42149404
31.89045952,-0.5181885101,8.42149404
31.46473112,-0.472749767,8.42149404
31.10190086,-0.4203711133,8.42149404
30.79757082,-0.3622901758,8.42149404
30.54685776,-0.2993058091,8.42149404
30.3452745,-0.2317607523,8.42149404
30.18943572,-0.1600356436,8.42149404
30.07671272,-0.08527758343,8.42149404
30.01008634,1.824555777e-15,8.42149404
30.07671272,0.08527758343,8.42149404
30.18943572,0.1600356436,8.42149404
30.3452745,0.2317607523,8.42149404
30.54685776,0.2993058091,8.42149404
30.79757082,0.3622901758,8.42149404
31.10190086,0.4203711133,8.42149404
31.46473112,0.472749767,8.42149404
31.89045952,0.5181885101,8.42149404
32.38210374,0.5551353461,8.42149404
32.94041227,0.5819126274,8.42149404
33.56300683,0.5970581162,8.42149404
34.24377553,0.5996251742,8.42149404
34.97262463,0.5893703079,8.42149404
35.7357411,0.5670036882,8.42149404
36.5164511,0.5340219935,8.42149404
37.29655345,0.4926447528,8.42149404
38.0579511,0.4454140112,8.42149404
38.7842612,0.3949335086,8.42149404
39.46211875,0.3435816931,8.42149404
40.08196525,0.293333908,8.42149404
40.63826315,0.2457178435,8.42149404
41.12920536,0.2017664658,8.42149404
41.55608169,0.1620931745,8.42149404
41.92248439,0.1269553619,8.42149404
42.23350602,0.09632770996,8.42149404
42.49503833,0.06999378913,8.42149404
42.71321726,0.04761155424,8.42149404
42.8940277,0.02877190404,8.42149404
43.04304957,0.01304295067,8.42149404
42.97020163,-5.759076114e-16,9.187084408
42.85832694,-0.01260629741,9.187084408
42.72197015,-0.02780873852,9.187084408
42.55652359,-0.04601785327,9.187084408
42.35687976,-0.06765116015,9.187084408
42.11755997,-0.09310420929,9.187084408
41.83294643,-0.1227077379,9.187084408
41.49764385,-0.1566709051,9.187084408
41.10698723,-0.1950180024,9.187084408
40.65768347,-0.2375003897,9.187084408
40.14854561,-0.2835252928,9.187084408
39.58122013,-0.3320932852,9.187084408
38.96076731,-0.3817268073,9.187084408
38.29592796,-0.4305159401,9.187084408
37.59892841,-0.4761580492,9.187084408
36.8847606,-0.5161338484,9.187084408
36.16999117,-0.5479807869,9.187084408
35.47128979,-0.5695507257,9.187084408
34.80393681,-0.5793901827,9.187084408
34.18060247,-0.5768107413,9.187084408
33.61055808,-0.5620426888,9.187084408
33.09943311,-0.5360030977,9.187084408
32.6494405,-0.5001038329,9.187084408
32.25993019,-0.4559691452,9.187084408
31.92817935,-0.4051003908,9.187084408
31.65021285,-0.3486959978,9.187084408
31.42163708,-0.2875336172,9.187084408
31.23847068,-0.2219665312,9.187084408
31.09780899,-0.1524381437,9.187084408
30.99742009,-0.08032647011,9.187084408
30.93939045,1.832505443e-15,9.187084408
30.99742009,0.08032647011,9.187084408
31.09780899,0.1524381437,9.187084408
31.23847068,0.2219665312,9.187084408
31.42163708,0.2875336172,9.187084408
31.65021285,0.3486959978,9.187084408
31.92817935,0.4051003908,9.187084408
32.25993019,0.4559691452,9.187084408
32.6494405,0.5001038329,9.187084408
33.09943311,0.5360030977,9.187084408
33.61055808,0.5620426888,9.187084408
34.18060247,0.5768107413,9.187084408
34.80393681,0.5793901827,9.187084408
35.47128979,0.5695507257,9.187084408
36.16999117,0.5479807869,9.187084408
36.8847606,0.5161338484,9.187084408
37.59892841,0.4761580492,9.187084408
38.29592796,0.4305159401,9.187084408
38.96076731,0.3817268073,9.187084408
39.58122013,0.3320932852,9.187084408
40.14854561,0.2835252928,9.187084408
40.65768347,0.2375003897,9.187084408
41.10698723,0.1950180024,9.187084408
41.49764385,0.1566709051,9.187084408
41.83294643,0.1227077379,9.187084408
42.11755997,0.09310420929,9.187084408
42.35687976,0.06765116015,9.187084408
42.55652359,0.04601785327,9.187084408
42.72197015,0.02780873852,9.187084408
42.85832694,0.01260629741,9.187084408
42.80139235,-5.813837032e-16,9.952674775
42.69947027,-0.01209641103,9.952674775
42.57524226,-0.02668401417,9.952674775
42.42450937,-0.04415678101,9.952674775
42.2426168,-0.06491541969,9.952674775
42.02457092,-0.08933960632,9.952674775
41.76525064,-0.1177468242,9.952674775
41.45973665,-0.1503377509,9.952674775
41.10377415,-0.1871355415,9.952674775
40.69435735,-0.2279017293,9.952674775
40.23039873,-0.272067593,9.952674775
39.71339189,-0.3186732325,9.952674775
39.14794096,-0.3662999776,9.952674775
38.54200444,-0.4131145508,9.952674775
37.90671858,-0.456904168,9.952674775
37.2557431,-0.4952491017,9.952674775
36.604178,-0.5257815715,9.952674775
35.96722419,-0.546437812,9.952674775
35.35882434,-0.5558171768,9.952674775
34.79055,-0.5532573527,9.952674775
34.27088008,-0.5389749575,9.952674775
33.80497698,-0.5138518027,9.952674775
33.39489029,-0.479241424,9.952674775
33.04005944,-0.436704761,9.952674775
32.73803876,-0.3876835795,9.952674775
32.48525127,-0.3333297605,9.952674775
32.27776212,-0.2743942747,9.952674775
32.11205733,-0.211235085,9.952674775
31.98566619,-0.1443427172,9.952674775
31.89671311,-0.07527148832,9.952674775
31.84651555,1.818904263e-15,9.952674775
31.89671311,0.07527148832,9.952674775
31.98566619,0.1443427172,9.952674775
32.11205733,0.211235085,9.952674775
32.27776212,0.2743942747,9.952674775
32.48525127,0.3333297605,9.952674775
32.73803876,0.3876835795,9.952674775
33.04005944,0.436704761,9.952674775
33.39489029,0.479241424,9.952674775
33.80497698,0.5138518027,9.952674775
34.27088008,0.5389749575,9.952674775
34.79055,0.5532573527,9.952674775
35.35882434,0.5558171768,9.952674775
35.96722419,0.546437812,9.952674775
36.604178,0.5257815715,9.952674775
37.2557431,0.4952491017,9.952674775
37.90671858,0.456904168,9.952674775
38.54200444,0.4131145508,9.952674775
39.14794096,0.3662999776,9.952674775
39.71339189,0.3186732325,9.952674775
40.23039873,0.272067593,9.952674775
40.69435735,0.2279017293,9.952674775
41.10377415,0.1871355415,9.952674775
41.45973665,0.1503377509,9.952674775
41.76525064,0.1177468242,9.952674775
42.02457092,0.08933960632,9.952674775
42.2426168,0.06491541969,9.952674775
42.42450937,0.04415678101,9.952674775
42.57524226,0.02668401417,9.952674775
42.69947027,0.01209641103,9.952674775
42.65916088,-5.800009088e-16,10.71826514
42.56675681,-0.01152094685,10.71826514
42.45412822,-0.0254146189,10.71826514
42.3174672,-0.04205628512,10.71826514
42.15255211,-0.06182765698,10.71826514
41.95485356,-0.08509045556,10.71826514
41.71972589,-0.1121471665,10.71826514
41.44270557,-0.1431889023,10.71826514
41.11993077,-0.1782375835,10.71826514
40.74867129,-0.2170661885,10.71826514
40.32793557,-0.2591331184,10.71826514
39.85907195,-0.3035233663,10.71826514
39.34624918,-0.3488850013,10.71826514
38.79667827,-0.3934714369,10.71826514
38.22045334,-0.4351723327,10.71826514
37.62995987,-0.4716810631,10.71826514
37.03889422,-0.5007383332,10.71826514
36.46105064,-0.5203763966,10.71826514
35.90908939,-0.5292561185,10.71826514
35.39352725,-0.5267451963,10.71826514
34.92208066,-0.513046196,10.71826514
34.4994605,-0.4890005544,10.71826514
34.12755534,-0.4558963629,10.71826514
33.80588564,-0.4152223534,10.71826514
33.53226574,-0.3683526792,10.71826514
33.30349309,-0.3163860791,10.71826514
33.11606177,-0.2600419042,10.71826514
32.96688851,-0.1996774072,10.71826514
32.85389243,-0.1358157449,10.71826514
32.77551603,-0.07013690757,10.71826514
32.73242512,1.784688399e-15,10.71826514
32.77551603,0.07013690757,10.71826514
32.85389243,0.1358157449,10.71826514
32.96688851,0.1996774072,10.71826514
33.11606177,0.2600419042,10.71826514
33.30349309,0.3163860791,10.71826514
33.53226574,0.3683526792,10.71826514
33.80588564,0.4152223534,10.71826514
34.12755534,0.4558963629,10.71826514
34.4994605,0.4890005544,10.71826514
34.92208066,0.513046196,10.71826514
35.39352725,0.5267451963,10.71826514
35.90908939,0.5292561185,10.71826514
36.46105064,0.5203763966,10.71826514
37.03889422,0.5007383332,10.71826514
37.62995987,0.4716810631,10.71826514
38.22045334,0.4351723327,10.71826514
38.79667827,0.3934714369,10.71826514
39.34624918,0.3488850013,10.71826514
39.85907195,0.3035233663,10.71826514
40.32793557,0.2591331184,10.71826514
40.74867129,0.2170661885,10.71826514
41.11993077,0.1782375835,10.71826514
41.44270557,0.1431889023,10.71826514
41.71972589,0.1121471665,10.71826514
41.95485356,0.08509045556,10.71826514
42.15255211,0.06182765698,10.71826514
42.3174672,0.04205628512,10.71826514
42.45412822,0.0254146189,10.71826514
42.56675681,0.01152094685,10.71826514
42.54380047,-5.716835465e-16,11.48385551
42.46048323,-0.01088731058,11.48385551
42.35892884,-0.02401688997,11.48385551
42.23570286,-0.03974340203,11.48385551
42.08699745,-0.05842762146,11.48385551
41.90872671,-0.08041146723,11.48385551
41.69669933,-0.1059808797,11.48385551
41.44688746,-0.1353164445,11.48385551
41.15580509,-0.168438763,11.48385551
40.82098589,-0.2051333855,11.48385551
40.44153078,-0.2448885573,11.48385551
40.01865031,-0.2868389332,11.48385551
39.55609838,-0.3297062924,11.48385551
39.06037303,-0.371839659,11.48385551
38.54057378,-0.4112423352,11.48385551
38.0078694,-0.4457328307,11.48385551
37.47461521,-0.4731725435,11.48385551
36.95326057,-0.491700097,11.48385551
36.45523844,-0.5000456145,11.48385551
35.99005468,-0.4976102845,11.48385551
35.56469334,-0.4845823187,11.48385551
35.18342959,-0.4617582278,11.48385551
34.84799366,-0.4303543571,11.48385551
34.557979,-0.3917793197,11.48385551
34.31144341,-0.3473325301,11.48385551
34.10553561,-0.2980537185,11.48385551
33.93714986,-0.2446261948,11.48385551
33.80359853,-0.18740156,11.48385551
33.70314867,-0.1269221994,11.48385551
33.63452475,-0.06494691381,11.48385551
33.59785083,1.730568814e-15,11.48385551
33.63452475,0.06494691381,11.48385551
33.70314867,0.1269221994,11.48385551
33.80359853,0.18740156,11.48385551
33.93714986,0.2446261948,11.48385551
34.10553561,0.2980537185,11.48385551
34.31144341,0.3473325301,11.48385551
34.557979,0.3917793197,11.48385551
34.84799366,0.4303543571,11.48385551
35.18342959,0.4617582278,11.48385551
35.56469334,0.4845823187,11.48385551
35.99005468,0.4976102845,11.48385551
36.45523844,0.5000456145,11.48385551
36.95326057,0.491700097,11.48385551
37.47461521,0.4731725435,11.48385551
38.0078694,0.4457328307,11.48385551
38.54057378,0.4112423352,11.48385551
39.06037303,0.371839659,11.48385551
39.55609838,0.3297062924,11.48385551
40.01865031,0.2868389332,11.48385551
40.44153078,0.2448885573,11.48385551
40.82098589,0.2051333855,11.48385551
41.15580509,0.168438763,11.48385551
41.44688746,0.1353164445,11.48385551
41.69669933,0.1059808797,11.48385551
41.90872671,0.08041146723,11.48385551
42.08699745,0.05842762146,11.48385551
42.23570286,0.03974340203,11.48385551
42.35892884,0.02401688997,11.48385551
42.46048323,0.01088731058,11.48385551
42.45560983,-5.563545327e-16,12.24944588
42.38095107,-0.01020284556,12.24944588
42.28994905,-0.02250702702,12.24944588
42.17952543,-0.03724494036,12.24944588
42.04626681,-0.05475472758,12.24944588
41.88651023,-0.07535689049,12.24944588
41.69649769,-0.09931947062,12.24944588
41.472617,-0.126811687,12.24944588
41.21174092,-0.1578527487,12.24944588
40.91165529,-0.1922417615,12.24944588
40.57154996,-0.2294991925,12.24944588
40.192505,-0.2688135335,12.24944588
39.77787983,-0.3089863727,12.24944588
39.33349376,-0.3484701443,12.24944588
38.86749892,-0.3853916094,12.24944588
38.3899045,-0.4177049501,12.24944588
37.91178706,-0.4434029689,12.24944588
37.44431258,-0.4607397276,12.24944588
36.99774176,-0.4685214325,12.24944588
36.58061338,-0.4661858211,12.24944588
36.1992094,-0.453906528,12.24944588
35.85738535,-0.4324311432,12.24944588
35.55671615,-0.4028987716,12.24944588
35.29686064,-0.366630972,12.24944588
35.07610396,-0.3248461827,12.24944588
34.89192372,-0.2785199814,12.24944588
34.7415865,-0.2282957276,12.24944588
34.62276671,-0.1745148727,12.24944588
34.53403982,-0.1177267016,12.24944588
34.47437811,-0.05972567213,12.24944588
34.44346643,1.657200171e-15,12.24944588
34.47437811,0.05972567213,12.24944588
34.53403982,0.1177267016,12.24944588
34.62276671,0.1745148727,12.24944588
34.7415865,0.2282957276,12.24944588
34.89192372,0.2785199814,12.24944588
35.07610396,0.3248461827,12.24944588
35.29686064,0.366630972,12.24944588
35.55671615,0.4028987716,12.24944588
35.85738535,0.4324311432,12.24944588
36.1992094,0.453906528,12.24944588
36.58061338,0.4661858211,12.24944588
36.99774176,0.4685214325,12.24944588
37.44431258,0.4607397276,12.24944588
37.91178706,0.4434029689,12.24944588
38.3899045,0.4177049501,12.24944588
38.86749892,0.3853916094,12.24944588
39.33349376,0.3484701443,12.24944588
39.77787983,0.3089863727,12.24944588
40.192505,0.2688135335,12.24944588
40.57154996,0.2294991925,12.24944588
40.91165529,0.1922417615,12.24944588
41.21174092,0.1578527487,12.24944588
41.472617,0.126811687,12.24944588
41.69649769,0.09931947062,12.24944588
41.88651023,0.07535689049,12.24944588
42.04626681,0.05475472758,12.24944588
42.17952543,0.03724494036,12.24944588
42.28994905,0.02250702702,12.24944588
42.38095107,0.01020284556,12.24944588
42.39488765,-5.339367836e-16,13.01503624
42.32846183,-0.00947489512,13.01503624
42.24749383,-0.02090122966,13.01503624
42.14924397,-0.0345877087,13.01503624
42.0306742,-0.05084838981,13.01503624
41.88852397,-0.06998097449,13.01503624
41.71944768,-0.09223444615,13.01503624
41.5202289,-0.1177659389,13.01503624
41.2880821,-0.1465932088,13.01503624
41.02103363,-0.1785297574,13.01503624
40.71835867,-0.2131303067,13.01503624
40.38101403,-0.2496407674,13.01503624
40.01198481,-0.2869477639,13.01503624
39.61644552,-0.32361382,13.01503624
39.20164776,-0.3578975894,13.01503624
38.77649795,-0.3878979667,13.01503624
38.35085582,-0.411748376,13.01503624
37.93466529,-0.4278261029,13.01503624
37.53706961,-0.4350193404,13.01503624
37.16568448,-0.4328050101,13.01503624
36.82612015,-0.4213420264,13.01503624
36.52182889,-0.4013256209,13.01503624
36.25423372,-0.3738129711,13.01503624
36.02305166,-0.3400326222,13.01503624
35.82677962,-0.3011166874,13.01503624
35.66320229,-0.2579721701,13.01503624
35.52993177,-0.2111990835,13.01503624
35.42497241,-0.1611246745,13.01503624
35.34717078,-0.108293872,13.01503624
35.29571494,-0.05449734762,13.01503624
35.26994565,1.565237135e-15,13.01503624
35.29571494,0.05449734762,13.01503624
35.34717078,0.108293872,13.01503624
35.42497241,0.1611246745,13.01503624
35.52993177,0.2111990835,13.01503624
35.66320229,0.2579721701,13.01503624
