x,y,z
10.74903858,0.017819397,1.12
10.82702565,0.01298701299,1.596190476
10.67828142,-0.004162915479,1.596190476
10.43923219,-0.03073461573,1.596190476
10.07181847,-0.0693045052,1.596190476
9.544143448,-0.1200647735,1.596190476
8.855678045,-0.1776953094,1.596190476
8.061735814,-0.2293891183,1.596190476
7.266662437,-0.2583241447,1.596190476
6.575871003,-0.2538642088,1.596190476
6.047052756,-0.2184454128,1.596190476
5.682135878,-0.1619830907,1.596190476
5.453207254,-0.08984146352,1.596190476
5.354456207,0.01298701299,1.596190476
5.453207254,0.1158154895,1.596190476
5.682135878,0.1879571166,1.596190476
6.047052756,0.2444194388,1.596190476
6.575871003,0.2798382348,1.596190476
7.266662437,0.2842981707,1.596190476
8.061735814,0.2553631443,1.596190476
8.855678045,0.2036693353,1.596190476
9.544143448,0.1460387995,1.596190476
10.07181847,0.09527853117,1.596190476
10.43923219,0.0567086417,1.596190476
10.67828142,0.03013694145,1.596190476
10.75046208,0.02597402597,2.072380952
10.60752426,0.009493566037,2.072380952
10.37780661,-0.01604087524,2.072380952
10.02473534,-0.05310514169,2.072380952
9.517658761,-0.1018839206,2.072380952
8.856068451,-0.1572647776,2.072380952
8.09311873,-0.2069406552,2.072380952
7.329082019,-0.2347461673,2.072380952
6.665256478,-0.2304603305,2.072380952
6.157081301,-0.1964241507,2.072380952
5.806409402,-0.1421659047,2.072380952
5.586417288,-0.07284041461,2.072380952
5.491521109,0.02597402597,2.072380952
5.586417288,0.1247884666,2.072380952
5.806409402,0.1941139567,2.072380952
6.157081301,0.2483722027,2.072380952
6.665256478,0.2824083825,2.072380952
7.329082019,0.2866942193,2.072380952
8.09311873,0.2588887072,2.072380952
8.856068451,0.2092128296,2.072380952
9.517658761,0.1538319725,2.072380952
10.02473534,0.1050531936,2.072380952
10.37780661,0.06798892719,2.072380952
10.60752426,0.04245448591,2.072380952
10.67389851,0.03896103896,2.548571429
10.53676711,0.02315004755,2.548571429
10.31638104,-0.00134713476,2.548571429
9.97765221,-0.03690577818,2.548571429
9.491174074,-0.08370306764,2.548571429
8.856458857,-0.1368342459,2.548571429
8.124501647,-0.1844921922,2.548571429
7.391501602,-0.2111681899,2.548571429
6.754641953,-0.2070564522,2.548571429
6.267109846,-0.1744028886,2.548571429
5.930682926,-0.1223487187,2.548571429
5.719627322,-0.0558393657,2.548571429
5.628586011,0.03896103896,2.548571429
5.719627322,0.1337614436,2.548571429
5.930682926,0.2002707967,2.548571429
6.267109846,0.2523249666,2.548571429
6.754641953,0.2849785302,2.548571429
7.391501602,0.2890902679,2.548571429
8.124501647,0.2624142701,2.548571429
8.856458857,0.2147563238,2.548571429
9.491174074,0.1616251456,2.548571429
9.97765221,0.1148278561,2.548571429
10.31638104,0.07926921268,2.548571429
10.53676711,0.05477203037,2.548571429
10.59733494,0.05194805195,3.024761905
10.46600995,0.03680652907,3.024761905
10.25495546,0.01334660572,3.024761905
9.93056908,-0.02070641468,3.024761905
9.464689387,-0.06552221469,3.024761905
8.856849263,-0.1164037142,3.024761905
8.155884563,-0.1620437291,3.024761905
7.453921185,-0.1875902126,3.024761905
6.844027428,-0.1836525739,3.024761905
6.377138391,-0.1523816266,3.024761905
6.054956449,-0.1025315328,3.024761905
5.852837356,-0.03883831679,3.024761905
5.765650914,0.05194805195,3.024761905
5.852837356,0.1427344207,3.024761905
6.054956449,0.2064276367,3.024761905
6.377138391,0.2562777305,3.024761905
6.844027428,0.2875486778,3.024761905
7.453921185,0.2914863165,3.024761905
8.155884563,0.265939833,3.024761905
8.856849263,0.2202998181,3.024761905
9.464689387,0.1694183186,3.024761905
9.93056908,0.1246025186,3.024761905
10.25495546,0.09054949817,3.024761905
10.46600995,0.06708957483,3.024761905
10.52077137,0.06493506494,3.500952381
10.3952528,0.05046301059,3.500952381
10.19352988,0.02804034621,3.500952381
9.883485951,-0.004507051168,3.500952381
9.4382047,-0.04734136174,3.500952381
8.857239669,-0.09597318246,3.500952381
8.18726748,-0.139595266,3.500952381
7.516340767,-0.1640122352,3.500952381
6.933412903,-0.1602486956,3.500952381
6.487166936,-0.1303603645,3.500952381
6.179229973,-0.08271434682,3.500952381
5.98604739,-0.02183726789,3.500952381
5.902715816,0.06493506494,3.500952381
5.98604739,0.1517073978,3.500952381
6.179229973,0.2125844767,3.500952381
6.487166936,0.2602304944,3.500952381
6.933412903,0.2901188255,3.500952381
7.516340767,0.2938823651,3.500952381
8.18726748,0.2694653959,3.500952381
8.857239669,0.2258433123,3.500952381
9.4382047,0.1772114916,3.500952381
9.883485951,0.134377181,3.500952381
10.19352988,0.1018297837,3.500952381
10.3952528,0.07940711928,3.500952381
10.4442078,0.07792207792,3.977142857
10.32449564,0.0641194921,3.977142857
10.13210431,0.04273408669,3.977142857
9.836402821,0.01169231234,3.977142857
9.411720013,-0.02916050879,3.977142857
8.857630075,-0.07554265073,3.977142857
8.218650396,-0.1171468029,3.977142857
7.57876035,-0.1404342578,3.977142857
7.022798379,-0.1368448173,3.977142857
6.597195481,-0.1083391024,3.977142857
6.303503497,-0.06289716086,3.977142857
6.119257423,-0.004836218976,3.977142857
6.039780718,0.07792207792,3.977142857
6.119257423,0.1606803748,3.977142857
6.303503497,0.2187413167,3.977142857
6.597195481,0.2641832582,3.977142857
7.022798379,0.2926889732,3.977142857
7.57876035,0.2962784137,3.977142857
8.218650396,0.2729909588,3.977142857
8.857630075,0.2313868066,3.977142857
9.411720013,0.1850046646,3.977142857
9.836402821,0.1441518435,3.977142857
10.13210431,0.1131100692,3.977142857
10.32449564,0.09172466374,3.977142857
10.36764423,0.09090909091,4.453333333
10.25373848,0.07777597362,4.453333333
10.07067873,0.05742782717,4.453333333
9.789319691,0.02789167585,4.453333333
9.385235327,-0.01097965584,4.453333333
8.858020481,-0.05511211901,4.453333333
8.250033313,-0.09469833987,4.453333333
7.641179933,-0.1168562804,4.453333333
7.112183854,-0.113440939,4.453333333
6.707224026,-0.08631784032,4.453333333
6.427777021,-0.04307997489,4.453333333
6.252467457,0.01216482993,4.453333333
6.176845621,0.09090909091,4.453333333
6.252467457,0.1696533519,4.453333333
6.427777021,0.2248981567,4.453333333
6.707224026,0.2681360221,4.453333333
7.112183854,0.2952591209,4.453333333
7.641179933,0.2986744623,4.453333333
8.250033313,0.2765165217,4.453333333
8.858020481,0.2369303008,4.453333333
9.385235327,0.1927978377,4.453333333
9.789319691,0.153926506,4.453333333
10.07067873,0.1243903546,4.453333333
10.25373848,0.1040422082,4.453333333
10.29108066,0.1038961039,4.92952381
10.18298133,0.09143245513,4.92952381
10.00925316,0.07212156766,4.92952381
9.742236562,0.04409103936,4.92952381
9.35875064,0.007201197114,4.92952381
8.858410887,-0.03468158728,4.92952381
8.281416229,-0.0722498768,4.92952381
7.703599515,-0.09327830306,4.92952381
7.201569329,-0.09003706073,4.92952381
6.817252571,-0.06429657824,4.92952381
6.552050544,-0.02326278893,4.92952381
6.385677491,0.02916587884,4.92952381
6.313910523,0.1038961039,4.92952381
6.385677491,0.1786263289,4.92952381
6.552050544,0.2310549967,4.92952381
6.817252571,0.272088786,4.92952381
7.201569329,0.2978292685,4.92952381
7.703599515,0.3010705109,4.92952381
8.281416229,0.2800420846,4.92952381
8.858410887,0.2424737951,4.92952381
9.35875064,0.2005910107,4.92952381
9.742236562,0.1637011684,4.92952381
10.00925316,0.1356706401,4.92952381
10.18298133,0.1163597527,4.92952381
10.21451709,0.1168831169,5.405714286
10.11222417,0.1050889367,5.405714286
9.947827582,0.08681530814,5.405714286
9.695153432,0.06029040287,5.405714286
9.332265953,0.02538205006,5.405714286
8.858801293,-0.01425105556,5.405714286
8.312799146,-0.04980141373,5.405714286
7.766019098,-0.06970032568,5.405714286
7.290954804,-0.06663318243,5.405714286
6.927281116,-0.04227531616,5.405714286
6.676324068,-0.003445602967,5.405714286
6.518887525,0.04616692775,5.405714286
6.450975425,0.1168831169,5.405714286
6.518887525,0.187599306,5.405714286
6.676324068,0.2372118367,5.405714286
6.927281116,0.2760415499,5.405714286
7.290954804,0.3003994162,5.405714286
7.766019098,0.3034665594,5.405714286
8.312799146,0.2835676475,5.405714286
8.858801293,0.2480172893,5.405714286
9.332265953,0.2083841837,5.405714286
9.695153432,0.1734758309,5.405714286
9.947827582,0.1469509256,5.405714286
10.11222417,0.1286772971,5.405714286
10.13795352,0.1298701299,5.881904762
10.04146702,0.1187454182,5.881904762
9.886402007,0.1015090486,5.881904762
9.648070302,0.07648976637,5.881904762
9.305781266,0.04356290301,5.881904762
8.859191699,0.006179476165,5.881904762
8.344182062,-0.02735295066,5.881904762
7.828438681,-0.0461223483,5.881904762
7.380340279,-0.04322930413,5.881904762
7.037309661,-0.02025405408,5.881904762
6.800597592,0.016371583,5.881904762
6.652097559,0.06316797666,5.881904762
6.588040327,0.1298701299,5.881904762
6.652097559,0.1965722831,5.881904762
6.800597592,0.2433686767,5.881904762
7.037309661,0.2799943138,5.881904762
7.380340279,0.3029695639,5.881904762
7.828438681,0.305862608,5.881904762
8.344182062,0.2870932104,5.881904762
8.859191699,0.2535607836,5.881904762
9.305781266,0.2161773567,5.881904762
9.648070302,0.1832504934,5.881904762
9.886402007,0.1582312111,5.881904762
10.04146702,0.1409948416,5.881904762
10.06138995,0.1428571429,6.358095238
9.970709859,0.1324018997,6.358095238
9.824976431,0.1162027891,6.358095238
9.600987173,0.09268912988,6.358095238
9.279296579,0.06174375596,6.358095238
8.859582105,0.02661000789,6.358095238
8.375564979,-0.004904487587,6.358095238
7.890858263,-0.02254437092,6.358095238
7.469725754,-0.01982542582,6.358095238
7.147338206,0.001767208,6.358095238
6.924871115,0.03618876896,6.358095238
6.785307593,0.08016902557,6.358095238
6.72510523,0.1428571429,6.358095238
6.785307593,0.2055452601,6.358095238
6.924871115,0.2495255168,6.358095238
7.147338206,0.2839470777,6.358095238
7.469725754,0.3055397115,6.358095238
7.890858263,0.3082586566,6.358095238
8.375564979,0.2906187733,6.358095238
8.859582105,0.2591042778,6.358095238
9.279296579,0.2239705297,6.358095238
9.600987173,0.1930251558,6.358095238
9.824976431,0.1695114966,6.358095238
9.970709859,0.153312386,6.358095238
9.984826382,0.1558441558,6.834285714
9.899952703,0.1460583812,6.834285714
9.763550856,0.1308965296,6.834285714
9.553904043,0.1088884934,6.834285714
9.252811892,0.07992460891,6.834285714
8.859972511,0.04704053961,6.834285714
8.406947895,0.01754397548,6.834285714
7.953277846,0.001033606455,6.834285714
7.559111229,0.003578452477,6.834285714
7.257366751,0.02378847008,6.834285714
7.049144639,0.05600595492,6.834285714
6.918517626,0.09717007448,6.834285714
6.862170132,0.1558441558,6.834285714
6.918517626,0.2145182372,6.834285714
7.049144639,0.2556823568,6.834285714
7.257366751,0.2878998416,6.834285714
7.559111229,0.3081098592,6.834285714
7.953277846,0.3106547052,6.834285714
8.406947895,0.2941443362,6.834285714
8.859972511,0.2646477721,6.834285714
9.252811892,0.2317637028,6.834285714
9.553904043,0.2027998183,6.834285714
9.763550856,0.1807917821,6.834285714
9.899952703,0.1656299305,6.834285714
9.908262812,0.1688311688,7.31047619
9.829195547,0.1597148627,7.31047619
9.70212528,0.1455902701,7.31047619
9.506820913,0.1250878569,7.31047619
9.226327205,0.09810546186,7.31047619
8.860362917,0.06747107134,7.31047619
8.438330812,0.03999243855,7.31047619
8.015697429,0.02461158383,7.31047619
7.648496704,0.02698233078,7.31047619
7.367395296,0.04580973216,7.31047619
7.173418163,0.07582314089,7.31047619
7.05172766,0.1141711234,7.31047619
6.999235034,0.1688311688,7.31047619
7.05172766,0.2234912143,7.31047619
7.173418163,0.2618391968,7.31047619
7.367395296,0.2918526055,7.31047619
7.648496704,0.3106800069,7.31047619
8.015697429,0.3130507538,7.31047619
8.438330812,0.2976698991,7.31047619
8.860362917,0.2701912663,7.31047619
9.226327205,0.2395568758,7.31047619
9.506820913,0.2125744808,7.31047619
9.70212528,0.1920720676,7.31047619
9.829195547,0.1779474749,7.31047619
9.831699242,0.1818181818,7.786666667
9.758438391,0.1733713442,7.786666667
9.640699704,0.1602840106,7.786666667
9.459737784,0.1412872204,7.786666667
9.199842518,0.1162863148,7.786666667
8.860753323,0.08790160306,7.786666667
8.469713728,0.06244090163,7.786666667
8.078117011,0.04818956121,7.786666667
7.737882179,0.05038620908,7.786666667
7.477423841,0.06783099424,7.786666667
7.297691687,0.09564032685,7.786666667
7.184937694,0.1311721723,7.786666667
7.136299937,0.1818181818,7.786666667
7.184937694,0.2324641913,7.786666667
7.297691687,0.2679960368,7.786666667
7.477423841,0.2958053694,7.786666667
7.737882179,0.3132501546,7.786666667
8.078117011,0.3154468024,7.786666667
8.469713728,0.301195462,7.786666667
8.860753323,0.2757347606,7.786666667
9.199842518,0.2473500488,7.786666667
9.459737784,0.2223491432,7.786666667
9.640699704,0.2033523531,7.786666667
9.758438391,0.1902650194,7.786666667
9.755135672,0.1948051948,8.262857143
9.687681235,0.1870278257,8.262857143
9.579274129,0.174977751,8.262857143
9.412654654,0.1574865839,8.262857143
9.173357832,0.1344671678,8.262857143
8.861143729,0.1083321348,8.262857143
8.501096645,0.0848893647,8.262857143
8.140536594,0.07176753859,8.262857143
7.827267654,0.07379008738,8.262857143
7.587452386,0.08985225632,8.262857143
7.42196521,0.1154575128,8.262857143
7.318147728,0.1481732212,8.262857143
7.273364839,0.1948051948,8.262857143
7.318147728,0.2414371684,8.262857143
7.42196521,0.2741528768,8.262857143
7.587452386,0.2997581333,8.262857143
7.827267654,0.3158203022,8.262857143
8.140536594,0.317842851,8.262857143
8.501096645,0.3047210249,8.262857143
8.861143729,0.2812782548,8.262857143
9.173357832,0.2551432218,8.262857143
9.412654654,0.2321238057,8.262857143
9.579274129,0.2146326386,8.262857143
9.687681235,0.2025825639,8.262857143
9.678572102,0.2077922078,8.739047619
9.616924079,0.2006843073,8.739047619
9.517848553,0.1896714915,8.739047619
9.365571524,0.1736859474,8.739047619
9.146873145,0.1526480207,8.739047619
8.861534135,0.1287626665,8.739047619
8.532479561,0.1073378278,8.739047619
8.202956177,0.09534551597,8.739047619
7.916653129,0.09719396569,8.739047619
7.697480931,0.1118735184,8.739047619
7.546238734,0.1352746988,8.739047619
7.451357762,0.1651742701,8.739047619
7.410429741,0.2077922078,8.739047619
7.451357762,0.2504101455,8.739047619
7.546238734,0.2803097168,8.739047619
7.697480931,0.3037108972,8.739047619
7.916653129,0.3183904499,8.739047619
8.202956177,0.3202388996,8.739047619
8.532479561,0.3082465878,8.739047619
8.861534135,0.2868217491,8.739047619
9.146873145,0.2629363949,8.739047619
9.365571524,0.2418984682,8.739047619
9.517848553,0.2259129241,8.739047619
9.616924079,0.2149001083,8.739047619
9.602008532,0.2207792208,9.215238095
9.546166922,0.2143407888,9.215238095
9.456422978,0.204365232,9.215238095
9.318488395,0.1898853109,9.215238095
9.120388458,0.1708288737,9.215238095
8.861924541,0.1491931982,9.215238095
8.563862478,0.1297862908,9.215238095
8.265375759,0.1189234933,9.215238095
8.006038604,0.120597844,9.215238095
7.807509476,0.1338947805,9.215238095
7.670512258,0.1550918847,9.215238095
7.584567796,0.182175319,9.215238095
7.547494644,0.2207792208,9.215238095
7.584567796,0.2593831225,9.215238095
7.670512258,0.2864665568,9.215238095
7.807509476,0.3076636611,9.215238095
8.006038604,0.3209605976,9.215238095
8.265375759,0.3226349482,9.215238095
8.563862478,0.3117721507,9.215238095
8.861924541,0.2923652433,9.215238095
9.120388458,0.2707295679,9.215238095
9.318488395,0.2516731306,9.215238095
9.456422978,0.2371932096,9.215238095
9.546166922,0.2272176528,9.215238095
9.525444963,0.2337662338,9.691428571
9.475409766,0.2279972703,9.691428571
9.394997402,0.2190589725,9.691428571
9.271405265,0.2060846744,9.691428571
9.093903771,0.1890097266,9.691428571
8.862314947,0.16962373,9.691428571
8.595245394,0.1522347539,9.691428571
8.327795342,0.1425014707,9.691428571
8.095424079,0.1440017223,9.691428571
7.917538022,0.1559160426,9.691428571
7.794785781,0.1749090707,9.691428571
7.717777829,0.1991763679,9.691428571
7.684559546,0.2337662338,9.691428571
7.717777829,0.2683560996,9.691428571
7.794785781,0.2926233968,9.691428571
7.917538022,0.311616425,9.691428571
8.095424079,0.3235307452,9.691428571
8.327795342,0.3250309968,9.691428571
8.595245394,0.3152977136,9.691428571
8.862314947,0.2979087376,9.691428571
9.093903771,0.2785227409,9.691428571
9.271405265,0.2614477931,9.691428571
9.394997402,0.248473495,9.691428571
9.475409766,0.2395351972,9.691428571
9.448881393,0.2467532468,10.16761905
9.40465261,0.2416537518,10.16761905
9.333571827,0.233752713,10.16761905
9.224322135,0.2222840379,10.16761905
9.067419084,0.2071905796,10.16761905
8.862705353,0.1900542617,10.16761905
8.626628311,0.174683217,10.16761905
8.390214924,0.1660794481,10.16761905
8.184809554,0.1674056006,10.16761905
8.027566567,0.1779373046,10.16761905
7.919059305,0.1947262567,10.16761905
7.850987863,0.2161774168,10.16761905
7.821624448,0.2467532468,10.16761905
7.850987863,0.2773290767,10.16761905
7.919059305,0.2987802368,10.16761905
8.027566567,0.3155691889,10.16761905
8.184809554,0.3261008929,10.16761905
8.390214924,0.3274270454,10.16761905
8.626628311,0.3188232765,10.16761905
8.862705353,0.3034522318,10.16761905
9.067419084,0.2863159139,10.16761905
9.224322135,0.2712224556,10.16761905
9.333571827,0.2597537805,10.16761905
9.40465261,0.2518527417,10.16761905
9.372317823,0.2597402597,10.64380952
9.333895454,0.2553102333,10.64380952
9.272146251,0.2484464535,10.64380952
9.177239005,0.2384834015,10.64380952
9.040934397,0.2253714325,10.64380952
8.863095759,0.2104847934,10.64380952
8.658011227,0.1971316801,10.64380952
8.452634507,0.1896574255,10.64380952
8.274195029,0.1908094789,10.64380952
8.137595112,0.1999585667,10.64380952
8.043332829,0.2145434426,10.64380952
7.984197897,0.2331784658,10.64380952
7.958689351,0.2597402597,10.64380952
7.984197897,0.2863020537,10.64380952
8.043332829,0.3049370769,10.64380952
8.137595112,0.3195219528,10.64380952
8.274195029,0.3286710406,10.64380952
8.452634507,0.329823094,10.64380952
8.658011227,0.3223488394,10.64380952
8.863095759,0.3089957261,10.64380952
9.040934397,0.294109087,10.64380952
9.177239005,0.280997118,10.64380952
9.272146251,0.271034066,10.64380952
9.333895454,0.2641702862,10.64380952
9.295754253,0.2727272727,11.12
9.263138298,0.2689667148,11.12
9.210720675,0.2631401939,11.12
9.130155876,0.254682765,11.12
9.01444971,0.2435522855,11.12
8.863486165,0.2309153251,11.12
8.689394144,0.2195801431,11.12
8.51505409,0.2132354029,11.12
8.363580504,0.2142133572,11.12
8.247623657,0.2219798288,11.12
8.167606353,0.2343606286,11.12
8.117407931,0.2501795147,11.12
8.095754253,0.2727272727,11.12
8.117407931,0.2952750308,11.12
8.167606353,0.3110939169,11.12
8.247623657,0.3234747166,11.12
8.363580504,0.3312411883,11.12
8.51505409,0.3322191426,11.12
8.689394144,0.3258744023,11.12
8.863486165,0.3145392203,11.12
9.01444971,0.30190226,11.12
9.130155876,0.2907717805,11.12
9.210720675,0.2823143515,11.12
9.263138298,0.2764878306,11.12
9.263138298,0.2708469938,11.12
9.210720675,0.2679337333,11.12
9.130155876,0.2637050188,11.12
9.01444971,0.2581397791,11.12
8.863486165,0.2518212989,11.12
8.689394144,0.2461537079,11.12
8.51505409,0.2429813378,11.12
8.363580504,0.243470315,11.12
8.247623657,0.2473535508,11.12
8.167606353,0.2535439507,11.12
8.117407931,0.2614533937,11.12
8.117407931,0.2840011518,11.12
8.167606353,0.2919105948,11.12
8.247623657,0.2981009947,11.12
8.363580504,0.3019842305,11.12
8.51505409,0.3024732077,11.12
8.689394144,0.2993008375,11.12
8.863486165,0.2936332465,11.12
9.01444971,0.2873147664,11.12
9.130155876,0.2817495266,11.12
9.210720675,0.2775208121,11.12
9.263138298,0.2746075517,11.12
9.263138298,0.2727272727,11.12
9.210720675,0.2727272727,11.12
9.130155876,0.2727272727,11.12
9.01444971,0.2727272727,11.12
8.863486165,0.2727272727,11.12
8.689394144,0.2727272727,11.12
8.51505409,0.2727272727,11.12
8.363580504,0.2727272727,11.12
8.247623657,0.2727272727,11.12
8.167606353,0.2727272727,11.12
8.117407931,0.2727272727,11.12
0.0,-0.5217391304,1.480297366e-16
0.4268640032,-0.4674782609,-0.4169498387
0.4510448654,-0.5727944606,-0.382181172
0.4912652565,-0.6508722918,-0.2894875744
0.5289899734,-0.6994082368,-0.1562876493
0.5456838131,-0.7160987779,5.684341886e-17
0.5289899734,-0.6994082368,0.1562876493
0.4912652565,-0.6508722918,0.2894875744
0.4510448654,-0.5727944606,0.382181172
0.4268640032,-0.4674782609,0.4169498387
0.4314954176,-0.346107286,0.382181172
0.4546620351,-0.2327089494,0.2894875744
0.4803243268,-0.1488524991,0.1562876493
0.4924427637,-0.1161071828,4.97379915e-17
0.4803243268,-0.1488524991,-0.1562876493
0.4546620351,-0.2327089494,-0.2894875744
0.4314954176,-0.346107286,-0.382181172
1.02346689,-0.3380869565,-0.7980685685
1.05067036,-0.5845780119,-0.7330822621
1.0959183,-0.7769977574,-0.5582660374
1.138358607,-0.902136623,-0.3038339361
1.157139176,-0.9467850382,6.394884622e-17
1.138358607,-0.902136623,0.3038339361
1.0959183,-0.7769977574,0.5582660374
1.05067036,-0.5845780119,0.7330822621
1.02346689,-0.3380869565,0.7980685685
1.028677231,-0.07353427911,0.7330822621
1.054739676,0.158621035,0.5582660374
1.083609754,0.3234954691,0.3038339361
1.097242996,0.3862055063,5.595524044e-17
1.083609754,0.3234954691,-0.3038339361
1.054739676,0.158621035,-0.5582660374
1.028677231,-0.07353427911,-0.7330822621
1.728376906,-0.1836521739,-1.110712379
1.746512553,-0.5731324662,-1.021883593
1.776677846,-0.8853582682,-0.7812762519
1.804971384,-1.09284737,-0.4277088794
1.817491764,-1.168117562,4.263256415e-17
1.804971384,-1.09284737,0.4277088794
1.776677846,-0.8853582682,0.7812762519
1.746512553,-0.5731324662,1.021883593
1.728376906,-0.1836521739,1.110712379
1.731850467,0.2178691997,1.021883593
1.74922543,0.5565853807,0.7812762519
1.768472149,0.7905648616,0.4277088794
1.777560977,0.8778761347,3.730349363e-17
1.768472149,0.7905648616,-0.4277088794
1.74922543,0.5565853807,-0.7812762519
1.731850467,0.2178691997,-1.021883593
2.480162296,-0.05426086957,-1.32223746
2.486207511,-0.5545005054,-1.217765488
2.496262609,-0.9611965647,-0.933459081
2.505693788,-1.234463559,-0.5129824982
2.509867248,-1.334415999,1.421085472e-17
2.505693788,-1.234463559,0.5129824982
2.496262609,-0.9611965647,0.933459081
2.486207511,-0.5545005054,1.217765488
2.480162296,-0.05426086957,1.32223746
2.48132015,0.44999246,1.217765488
2.487111804,0.8655186457,0.933459081
2.493527377,1.147615766,0.5129824982
2.496556986,1.2515819,1.243449788e-17
2.493527377,1.147615766,-0.5129824982
2.487111804,0.8655186457,-0.933459081
2.48132015,0.44999246,-1.217765488
3.217391304,0.0,-1.4
3.217391304,-0.5447248113,-1.28990827
3.217391304,-0.9897553879,-0.9897553879
3.217391304,-1.28990827,-0.5447248113
3.217391304,-1.4,-0.0
3.217391304,-1.28990827,0.5447248113
3.217391304,-0.9897553879,0.9897553879
3.217391304,-0.5447248113,1.28990827
3.217391304,0.0,1.4
3.217391304,0.5447248113,1.28990827
3.217391304,0.9897553879,0.9897553879
3.217391304,1.28990827,0.5447248113
3.217391304,1.4,-0.0
3.217391304,1.28990827,-0.5447248113
3.217391304,0.9897553879,-0.9897553879
3.217391304,0.5447248113,-1.28990827
3.871525061,0.0,-1.4
3.871525061,-0.5447248113,-1.28990827
3.871525061,-0.9897553879,-0.9897553879
3.871525061,-1.28990827,-0.5447248113
3.871525061,-1.4,-0.0
3.871525061,-1.28990827,0.5447248113
3.871525061,-0.9897553879,0.9897553879
3.871525061,-0.5447248113,1.28990827
3.871525061,0.0,1.4
3.871525061,0.5447248113,1.28990827
3.871525061,0.9897553879,0.9897553879
3.871525061,1.28990827,0.5447248113
3.871525061,1.4,-0.0
3.871525061,1.28990827,-0.5447248113
3.871525061,0.9897553879,-0.9897553879
3.871525061,0.5447248113,-1.28990827
4.628595556,0.0,-1.4
4.628595556,-0.5447248113,-1.28990827
4.628595556,-0.9897553879,-0.9897553879
4.628595556,-1.28990827,-0.5447248113
4.628595556,-1.4,-0.0
4.628595556,-1.28990827,0.5447248113
4.628595556,-0.9897553879,0.9897553879
4.628595556,-0.5447248113,1.28990827
4.628595556,0.0,1.4
4.628595556,0.5447248113,1.28990827
4.628595556,0.9897553879,0.9897553879
4.628595556,1.28990827,0.5447248113
4.628595556,1.4,-0.0
4.628595556,1.28990827,-0.5447248113
4.628595556,0.9897553879,-0.9897553879
4.628595556,0.5447248113,-1.28990827
5.454290544,0.0,-1.4
5.454290544,-0.5447248113,-1.28990827
5.454290544,-0.9897553879,-0.9897553879
5.454290544,-1.28990827,-0.5447248113
5.454290544,-1.4,-0.0
5.454290544,-1.28990827,0.5447248113
5.454290544,-0.9897553879,0.9897553879
5.454290544,-0.5447248113,1.28990827
5.454290544,0.0,1.4
5.454290544,0.5447248113,1.28990827
5.454290544,0.9897553879,0.9897553879
5.454290544,1.28990827,0.5447248113
5.454290544,1.4,-0.0
5.454290544,1.28990827,-0.5447248113
5.454290544,0.9897553879,-0.9897553879
5.454290544,0.5447248113,-1.28990827
6.314297778,0.0,-1.4
6.314297778,-0.5447248113,-1.28990827
6.314297778,-0.9897553879,-0.9897553879
6.314297778,-1.28990827,-0.5447248113
6.314297778,-1.4,-0.0
6.314297778,-1.28990827,0.5447248113
6.314297778,-0.9897553879,0.9897553879
6.314297778,-0.5447248113,1.28990827
6.314297778,0.0,1.4
6.314297778,0.5447248113,1.28990827
6.314297778,0.9897553879,0.9897553879
6.314297778,1.28990827,0.5447248113
6.314297778,1.4,-0.0
6.314297778,1.28990827,-0.5447248113
6.314297778,0.9897553879,-0.9897553879
6.314297778,0.5447248113,-1.28990827
7.174305012,0.0,-1.4
7.174305012,-0.5447248113,-1.28990827
7.174305012,-0.9897553879,-0.9897553879
7.174305012,-1.28990827,-0.5447248113
7.174305012,-1.4,-0.0
7.174305012,-1.28990827,0.5447248113
7.174305012,-0.9897553879,0.9897553879
7.174305012,-0.5447248113,1.28990827
7.174305012,0.0,1.4
7.174305012,0.5447248113,1.28990827
7.174305012,0.9897553879,0.9897553879
7.174305012,1.28990827,0.5447248113
7.174305012,1.4,-0.0
7.174305012,1.28990827,-0.5447248113
7.174305012,0.9897553879,-0.9897553879
7.174305012,0.5447248113,-1.28990827
8.0,0.0,-1.4
8.0,-0.5447248113,-1.28990827
8.0,-0.9897553879,-0.9897553879
8.0,-1.28990827,-0.5447248113
8.0,-1.4,-0.0
8.0,-1.28990827,0.5447248113
8.0,-0.9897553879,0.9897553879
8.0,-0.5447248113,1.28990827
8.0,0.0,1.4
8.0,0.5447248113,1.28990827
8.0,0.9897553879,0.9897553879
8.0,1.28990827,0.5447248113
8.0,1.4,-0.0
8.0,1.28990827,-0.5447248113
8.0,0.9897553879,-0.9897553879
8.0,0.5447248113,-1.28990827
8.616332294,0.0,-1.4
8.616332294,-0.5447248113,-1.28990827
8.616332294,-0.9897553879,-0.9897553879
8.616332294,-1.28990827,-0.5447248113
8.616332294,-1.4,-0.0
8.616332294,-1.28990827,0.5447248113
8.616332294,-0.9897553879,0.9897553879
8.616332294,-0.5447248113,1.28990827
8.616332294,0.0,1.4
8.616332294,0.5447248113,1.28990827
8.616332294,0.9897553879,0.9897553879
8.616332294,1.28990827,0.5447248113
8.616332294,1.4,-0.0
8.616332294,1.28990827,-0.5447248113
8.616332294,0.9897553879,-0.9897553879
8.616332294,0.5447248113,-1.28990827
9.36945503,0.0,-1.4
9.36945503,-0.5447248113,-1.28990827
9.36945503,-0.9897553879,-0.9897553879
9.36945503,-1.28990827,-0.5447248113
9.36945503,-1.4,-0.0
9.36945503,-1.28990827,0.5447248113
9.36945503,-0.9897553879,0.9897553879
9.36945503,-0.5447248113,1.28990827
9.36945503,0.0,1.4
9.36945503,0.5447248113,1.28990827
9.36945503,0.9897553879,0.9897553879
9.36945503,1.28990827,0.5447248113
9.36945503,1.4,-0.0
9.36945503,1.28990827,-0.5447248113
9.36945503,0.9897553879,-0.9897553879
9.36945503,0.5447248113,-1.28990827
10.20975989,0.0,-1.4
10.20975989,-0.5447248113,-1.28990827
10.20975989,-0.9897553879,-0.9897553879
10.20975989,-1.28990827,-0.5447248113
10.20975989,-1.4,-0.0
10.20975989,-1.28990827,0.5447248113
10.20975989,-0.9897553879,0.9897553879
10.20975989,-0.5447248113,1.28990827
10.20975989,0.0,1.4
10.20975989,0.5447248113,1.28990827
10.20975989,0.9897553879,0.9897553879
10.20975989,1.28990827,0.5447248113
10.20975989,1.4,-0.0
10.20975989,1.28990827,-0.5447248113
10.20975989,0.9897553879,-0.9897553879
10.20975989,0.5447248113,-1.28990827
11.08763856,0.0,-1.4
11.08763856,-0.5447248113,-1.28990827
11.08763856,-0.9897553879,-0.9897553879
11.08763856,-1.28990827,-0.5447248113
11.08763856,-1.4,-0.0
11.08763856,-1.28990827,0.5447248113
11.08763856,-0.9897553879,0.9897553879
11.08763856,-0.5447248113,1.28990827
11.08763856,0.0,1.4
11.08763856,0.5447248113,1.28990827
11.08763856,0.9897553879,0.9897553879
11.08763856,1.28990827,0.5447248113
11.08763856,1.4,-0.0
11.08763856,1.28990827,-0.5447248113
11.08763856,0.9897553879,-0.9897553879
11.08763856,0.5447248113,-1.28990827
11.95348271,0.0,-1.4
11.95348271,-0.5447248113,-1.28990827
11.95348271,-0.9897553879,-0.9897553879
11.95348271,-1.28990827,-0.5447248113
11.95348271,-1.4,-0.0
11.95348271,-1.28990827,0.5447248113
11.95348271,-0.9897553879,0.9897553879
11.95348271,-0.5447248113,1.28990827
11.95348271,0.0,1.4
11.95348271,0.5447248113,1.28990827
11.95348271,0.9897553879,0.9897553879
11.95348271,1.28990827,0.5447248113
11.95348271,1.4,-0.0
11.95348271,1.28990827,-0.5447248113
11.95348271,0.9897553879,-0.9897553879
11.95348271,0.5447248113,-1.28990827
12.75768403,0.0,-1.4
12.75768403,-0.5447248113,-1.28990827
12.75768403,-0.9897553879,-0.9897553879
12.75768403,-1.28990827,-0.5447248113
12.75768403,-1.4,-0.0
12.75768403,-1.28990827,0.5447248113
12.75768403,-0.9897553879,0.9897553879
12.75768403,-0.5447248113,1.28990827
12.75768403,0.0,1.4
12.75768403,0.5447248113,1.28990827
12.75768403,0.9897553879,0.9897553879
12.75768403,1.28990827,0.5447248113
12.75768403,1.4,-0.0
12.75768403,1.28990827,-0.5447248113
12.75768403,0.9897553879,-0.9897553879
12.75768403,0.5447248113,-1.28990827
13.4506342,0.0,-1.4
13.4506342,-0.5447248113,-1.28990827
13.4506342,-0.9897553879,-0.9897553879
13.4506342,-1.28990827,-0.5447248113
13.4506342,-1.4,-0.0
13.4506342,-1.28990827,0.5447248113
13.4506342,-0.9897553879,0.9897553879
13.4506342,-0.5447248113,1.28990827
13.4506342,0.0,1.4
13.4506342,0.5447248113,1.28990827
13.4506342,0.9897553879,0.9897553879
13.4506342,1.28990827,0.5447248113
13.4506342,1.4,-0.0
13.4506342,1.28990827,-0.5447248113
13.4506342,0.9897553879,-0.9897553879
13.4506342,0.5447248113,-1.28990827
13.98272491,0.0,-1.4
13.98272491,-0.5447248113,-1.28990827
13.98272491,-0.9897553879,-0.9897553879
13.98272491,-1.28990827,-0.5447248113
13.98272491,-1.4,-0.0
13.98272491,-1.28990827,0.5447248113
13.98272491,-0.9897553879,0.9897553879
13.98272491,-0.5447248113,1.28990827
13.98272491,0.0,1.4
13.98272491,0.5447248113,1.28990827
13.98272491,0.9897553879,0.9897553879
13.98272491,1.28990827,0.5447248113
13.98272491,1.4,-0.0
13.98272491,1.28990827,-0.5447248113
13.98272491,0.9897553879,-0.9897553879
13.98272491,0.5447248113,-1.28990827
14.30434783,0.0,-1.4
14.30434783,-0.5447248113,-1.28990827
14.30434783,-0.9897553879,-0.9897553879
14.30434783,-1.28990827,-0.5447248113
14.30434783,-1.4,-0.0
14.30434783,-1.28990827,0.5447248113
14.30434783,-0.9897553879,0.9897553879
14.30434783,-0.5447248113,1.28990827
14.30434783,0.0,1.4
14.30434783,0.5447248113,1.28990827
14.30434783,0.9897553879,0.9897553879
14.30434783,1.28990827,0.5447248113
14.30434783,1.4,-0.0
14.30434783,1.28990827,-0.5447248113
14.30434783,0.9897553879,-0.9897553879
14.30434783,0.5447248113,-1.28990827
14.78473233,0.0,-1.30625
14.78473233,-0.5082477034,-1.203530484
14.78473233,-0.9234771253,-0.9234771253
14.78473233,-1.203530484,-0.5082477034
14.78473233,-1.30625,-0.0
14.78473233,-1.203530484,0.5082477034
14.78473233,-0.9234771253,0.9234771253
14.78473233,-0.5082477034,1.203530484
14.78473233,0.0,1.30625
14.78473233,0.5082477034,1.203530484
14.78473233,0.9234771253,0.9234771253
14.78473233,1.203530484,0.5082477034
14.78473233,1.30625,-0.0
14.78473233,1.203530484,-0.5082477034
14.78473233,0.9234771253,-0.9234771253
14.78473233,0.5082477034,-1.203530484
15.27700845,0.0,-1.1
15.27700845,-0.4279980661,-1.013499355
15.27700845,-0.7776649476,-0.7776649476
15.27700845,-1.013499355,-0.4279980661
15.27700845,-1.1,-0.0
15.27700845,-1.013499355,0.4279980661
15.27700845,-0.7776649476,0.7776649476
15.27700845,-0.4279980661,1.013499355
15.27700845,0.0,1.1
15.27700845,0.4279980661,1.013499355
15.27700845,0.7776649476,0.7776649476
15.27700845,1.013499355,0.4279980661
15.27700845,1.1,-0.0
15.27700845,1.013499355,-0.4279980661
15.27700845,0.7776649476,-0.7776649476
15.27700845,0.4279980661,-1.013499355
15.7068673,0.0,-0.89375
15.7068673,-0.3477484287,-0.8234682262
15.7068673,-0.6318527699,-0.6318527699
15.7068673,-0.8234682262,-0.3477484287
15.7068673,-0.89375,-0.0
15.7068673,-0.8234682262,0.3477484287
15.7068673,-0.6318527699,0.6318527699
15.7068673,-0.3477484287,0.8234682262
15.7068673,0.0,0.89375
15.7068673,0.3477484287,0.8234682262
15.7068673,0.6318527699,0.6318527699
15.7068673,0.8234682262,0.3477484287
15.7068673,0.89375,-0.0
15.7068673,0.8234682262,-0.3477484287
15.7068673,0.6318527699,-0.6318527699
15.7068673,0.3477484287,-0.8234682262
16.0,0.0,-0.8
16.0,-0.3112713208,-0.7370904403
16.0,-0.5655745073,-0.5655745073
16.0,-0.7370904403,-0.3112713208
16.0,-0.8,-0.0
16.0,-0.7370904403,0.3112713208
16.0,-0.5655745073,0.5655745073
16.0,-0.3112713208,0.7370904403
16.0,0.0,0.8
16.0,0.3112713208,0.7370904403
16.0,0.5655745073,0.5655745073
16.0,0.7370904403,0.3112713208
16.0,0.8,-0.0
16.0,0.7370904403,-0.3112713208
16.0,0.5655745073,-0.5655745073
16.0,0.3112713208,-0.7370904403
16.08709155,0.0,-0.6240195606
16.08709155,-0.2421109385,-0.5747191317
16.08709155,-0.4405501201,-0.4405501201
16.08709155,-0.5747191317,-0.2421109385
16.08709155,-0.6240195606,3.083952846e-18
16.08709155,-0.5747191317,0.2421109385
16.08709155,-0.4405501201,0.4405501201
16.08709155,-0.2421109385,0.5747191317
16.08709155,-4.111937128e-18,0.6240195606
16.08709155,0.2421109385,0.5747191317
16.08709155,0.4405501201,0.4405501201
16.08709155,0.5747191317,0.2421109385
16.08709155,0.6240195606,6.681897833e-18
16.08709155,0.5747191317,-0.2421109385
16.08709155,0.4405501201,-0.4405501201
16.08709155,0.2421109385,-0.5747191317
15.99640532,0.0,-0.2702613435
15.99640532,-0.1037791517,-0.2485499475
15.99640532,-0.1898425089,-0.1898425089
15.99640532,-0.2485499475,-0.1037791517
15.99640532,-0.2702613435,6.167905692e-18
15.99640532,-0.2485499475,0.1037791517
15.99640532,-0.1898425089,0.1898425089
15.99640532,-0.1037791517,0.2485499475
15.99640532,-8.223874256e-18,0.2702613435
15.99640532,0.1037791517,0.2485499475
15.99640532,0.1898425089,0.1898425089
15.99640532,0.2485499475,0.1037791517
15.99640532,0.2702613435,1.336379567e-17
15.99640532,0.2485499475,-0.1037791517
15.99640532,0.1898425089,-0.1898425089
15.99640532,0.1037791517,-0.2485499475
16.0,0.0,-0.0
14.67119565,0.82,-0.92
14.61513698,0.82,-0.92
14.61513698,0.8175243516,-0.9220773156
14.52504419,0.8136886396,-0.9252958602
14.52504419,0.82,-0.92
14.38657344,0.8081209497,-0.9299677067
14.38657344,0.82,-0.92
14.18770347,0.8007935386,-0.9361161347
14.18770347,0.82,-0.92
13.92823488,0.7924743819,-0.943096736
13.92823488,0.82,-0.92
13.62901421,0.7850122112,-0.9493582407
13.62901421,0.82,-0.92
13.32936725,0.82,-0.92
13.32936725,0.7808353453,-0.9528630473
13.06902202,0.82,-0.92
13.06902202,0.7814791517,-0.9523228296
12.86972119,0.82,-0.92
12.86972119,0.786591971,-0.9480326648
12.73219145,0.82,-0.92
12.73219145,0.7947424922,-0.9411935655
12.64591291,0.82,-0.92
12.64591291,0.8051563725,-0.9324552824
12.60869565,0.82,-0.92
12.64591291,0.8348436275,-0.9075447176
12.73219145,0.8452575078,-0.8988064345
12.86972119,0.853408029,-0.8919673352
13.06902202,0.8585208483,-0.8876771704
13.32936725,0.8591646547,-0.8871369527
13.62901421,0.8549877888,-0.8906417593
13.92823488,0.8475256181,-0.896903264
14.18770347,0.8392064614,-0.9038838653
14.38657344,0.8318790503,-0.9100322933
14.52504419,0.8263113604,-0.9147041398
14.61513698,0.8224756484,-0.9179226844
14.61513698,0.8150487033,-0.9241546313
14.52504419,0.8073772793,-0.9305917203
14.38657344,0.7962418994,-0.9399354135
14.18770347,0.7815870773,-0.9522322693
13.92823488,0.7649487639,-0.9661934719
13.62901421,0.7500244224,-0.9787164813
13.32936725,0.7416706907,-0.9857260945
13.06902202,0.7429583034,-0.9846456592
12.86972119,0.7531839419,-0.9760653297
12.73219145,0.7694849844,-0.962387131
12.64591291,0.7903127449,-0.9449105648
12.64591291,0.8496872551,-0.8950894352
12.73219145,0.8705150156,-0.877612869
12.86972119,0.8868160581,-0.8639346703
13.06902202,0.8970416966,-0.8553543408
13.32936725,0.8983293093,-0.8542739055
13.62901421,0.8899755776,-0.8612835187
13.92823488,0.8750512361,-0.8738065281
14.18770347,0.8584129227,-0.8877677307
14.38657344,0.8437581006,-0.9000645865
14.52504419,0.8326227207,-0.9094082797
14.61513698,0.8249512967,-0.9158453687
14.58122137,1.031949363,-1.160550007
14.63494224,1.036694177,-1.156568635
14.49488569,1.024597858,-1.166718652
14.36218956,1.013926854,-1.175672687
14.17161301,0.9998831786,-1.187456731
13.92296497,0.9839387285,-1.200835713
13.63622263,0.969636773,-1.212836478
13.34907176,0.9616314148,-1.219553771
13.09958364,0.9628653305,-1.218518393
12.9085942,0.9726645319,-1.210295887
12.77679983,0.9882857761,-1.197188107
12.69411934,1.008244962,-1.180440361
12.65845414,1.036694177,-1.156568635
12.69411934,1.065143392,-1.132696909
12.77679983,1.085102578,-1.115949164
12.9085942,1.100723822,-1.102841384
13.09958364,1.110523024,-1.094618877
13.34907176,1.111756939,-1.093583499
13.63622263,1.103751581,-1.100300792
13.92296497,1.089449626,-1.112301558
14.17161301,1.073505176,-1.12568054
14.36218956,1.0594615,-1.137464583
14.49488569,1.048790496,-1.146418619
14.58122137,1.041438991,-1.152587263
14.54730575,1.248850023,-1.396945383
14.59868883,1.253388354,-1.39313727
14.4647272,1.241818438,-1.402845583
14.33780567,1.231611809,-1.411409961
14.15552254,1.21817928,-1.422681192
13.91769505,1.202928693,-1.435477953
13.64343104,1.189249124,-1.446956475
13.36877627,1.181592139,-1.453381448
13.13014526,1.182772358,-1.452391127
12.94746721,1.192145122,-1.444526444
12.82140821,1.207086568,-1.431989082
12.74232577,1.226177179,-1.415970158
12.70821264,1.253388354,-1.39313727
12.74232577,1.280599529,-1.370304383
12.82140821,1.299690141,-1.354285459
12.94746721,1.314631587,-1.341748097
13.13014526,1.324004351,-1.333883414
13.36877627,1.32518457,-1.332893093
13.64343104,1.317527585,-1.339318066
13.91769505,1.303848015,-1.350796587
14.15552254,1.288597429,-1.363593349
14.33780567,1.275164899,-1.37486458
14.4647272,1.264958271,-1.383428958
14.54730575,1.257926686,-1.389329158
14.51339014,1.465750683,-1.633340758
14.56243541,1.470082531,-1.629705906
14.4345687,1.459039017,-1.638972515
14.31342178,1.449296765,-1.647147235
14.13943208,1.436475381,-1.657905653
13.91242514,1.421918658,-1.670120194
13.65063945,1.408861474,-1.681076472
13.38848078,1.401552863,-1.687209125
13.16070688,1.402679385,-1.686263861
12.98634022,1.411625712,-1.678757001
12.86601658,1.42588736,-1.666790058
12.7905322,1.444109396,-1.651499954
12.75797113,1.470082531,-1.629705906
12.7905322,1.496055667,-1.607911857
12.86601658,1.514277703,-1.592621753
12.98634022,1.528539351,-1.58065481
13.16070688,1.537485678,-1.57314795
13.38848078,1.5386122,-1.572202686
13.65063945,1.531303589,-1.578335339
13.91242514,1.518246405,-1.589291617
14.13943208,1.503689682,-1.601506158
14.31342178,1.490868298,-1.612264576
14.4345687,1.481126046,-1.620439297
14.51339014,1.47441438,-1.626071053
14.47947453,1.682651342,-1.869736134
14.526182,1.686776708,-1.866274541
14.40441021,1.676259596,-1.875099446
14.2890379,1.66698172,-1.882884509
14.12334162,1.654771483,-1.893130114
13.90715523,1.640908622,-1.904762435
13.65784786,1.628473825,-1.915196469
13.40818529,1.621513587,-1.921036802
13.1912685,1.622586412,-1.920136595
13.02521324,1.631106302,-1.912987559
12.91062496,1.644688151,-1.901591034
12.83873863,1.662041613,-1.88702975
12.80772962,1.686776708,-1.866274541
12.83873863,1.711511804,-1.845519331
12.91062496,1.728865266,-1.830958048
13.02521324,1.742447115,-1.819561523
13.1912685,1.750967005,-1.812412487
13.40818529,1.75203983,-1.81151228
13.65784786,1.745079592,-1.817352613
13.90715523,1.732644795,-1.827786647
14.12334162,1.718781934,-1.839418968
14.2890379,1.706571697,-1.849664573
14.40441021,1.697293821,-1.857449636
14.47947453,1.690902075,-1.862812948
14.44555892,1.899552002,-2.10613151
14.48992859,1.903470886,-2.102843176
14.37425171,1.893480175,-2.111226378
14.26465401,1.884666675,-2.118621783
14.10725115,1.873067584,-2.128354575
13.90188532,1.859898587,-2.139404676
13.66505627,1.848086175,-2.149316466
13.4278898,1.841474311,-2.154864479
13.22183012,1.842493439,-2.154009329
13.06408625,1.850586892,-2.147218116
12.95523334,1.863488943,-2.136392009
12.88694506,1.87997383,-2.122559547
12.85748811,1.903470886,-2.102843176
12.88694506,1.926967941,-2.083126806
12.95523334,1.943452828,-2.069294343
13.06408625,1.95635488,-2.058468236
13.22183012,1.964448332,-2.051677023
13.4278898,1.96546746,-2.050821873
13.66505627,1.958855596,-2.056369886
13.90188532,1.947043184,-2.066281676
14.10725115,1.933874187,-2.077331777
14.26465401,1.922275097,-2.08706457
14.37425171,1.913461596,-2.094459975
14.44555892,1.907389769,-2.099554842
14.4116433,2.116452662,-2.342526885
14.45367518,2.120165063,-2.339411811
14.34409321,2.110700754,-2.347353309
14.24027012,2.10235163,-2.354359056
14.09116069,2.091363685,-2.363579037
13.89661541,2.078888551,-2.374046917
13.67226468,2.067698526,-2.383436463
13.44759431,2.061435035,-2.388692156
13.25239174,2.062400466,-2.387882063
13.10295926,2.070067482,-2.381448673
12.99984172,2.082289735,-2.371192985
12.93515149,2.097906047,-2.358089343
12.9072466,2.120165063,-2.339411811
12.93515149,2.142424078,-2.32073428
12.99984172,2.15804039,-2.307630638
13.10295926,2.170262644,-2.297374949
13.25239174,2.177929659,-2.290941559
13.44759431,2.17889509,-2.290131467
13.67226468,2.1726316,-2.295387159
13.89661541,2.161441574,-2.304776706
14.09116069,2.14896644,-2.315244586
14.24027012,2.137978496,-2.324464566
14.34409321,2.129629371,-2.331470314
14.4116433,2.123877464,-2.336296737
14.37772769,2.333353322,-2.578922261
14.41742176,2.33685924,-2.575980446
14.31393472,2.327921334,-2.58348024
14.21588624,2.320036585,-2.59009633
14.07507023,2.309659786,-2.598803498
13.8913455,2.297878516,-2.608689157
13.67947309,2.287310876,-2.61755646
13.46729882,2.281395759,-2.622519833
13.28295336,2.282307493,-2.621754797
13.14183227,2.289548071,-2.61567923
13.0444501,2.301090527,-2.60599396
12.98335792,2.315838264,-2.593619139
12.9570051,2.33685924,-2.575980446
12.98335792,2.357880215,-2.558341754
13.0444501,2.372627953,-2.545966933
13.14183227,2.384170408,-2.536281663
13.28295336,2.391410987,-2.530206096
13.46729882,2.39232272,-2.52944106
13.67947309,2.386407603,-2.534404433
13.8913455,2.375839964,-2.543271736
14.07507023,2.364058693,-2.553157395
14.21588624,2.353681895,-2.561864563
14.31393472,2.345797146,-2.568480653
14.37772769,2.340365158,-2.573038632
14.34381208,2.550253981,-2.815317637
14.38116835,2.553553417,-2.812549082
14.28377622,2.545141913,-2.819607172
14.19150235,2.53772154,-2.825833604
14.05897976,2.527955888,-2.834027959
13.88607558,2.516868481,-2.843331398
13.6866815,2.506923227,-2.851676457
13.48700333,2.501356483,-2.856347509
13.31351498,2.50221452,-2.855627531
13.18070528,2.509028661,-2.849909788
13.08905848,2.519891319,-2.840794936
13.03156435,2.533770481,-2.829148936
13.00676359,2.553553417,-2.812549082
13.03156435,2.573336353,-2.795949228
13.08905848,2.587215515,-2.784303227
13.18070528,2.598078173,-2.775188376
13.31351498,2.604892314,-2.769470632
13.48700333,2.605750351,-2.768750654
13.6866815,2.600183607,-2.773421706
13.88607558,2.590238353,-2.781766765
14.05897976,2.579150946,-2.791070204
14.19150235,2.569385294,-2.799264559
14.28377622,2.561964921,-2.805490992
14.34381208,2.556852853,-2.809780527
14.30989647,2.767154641,-3.051713013
14.34491494,2.770247594,-3.049117717
14.25361773,2.762362492,-3.055734103
14.16711846,2.755406495,-3.061570878
14.0428893,2.746251989,-3.06925242
13.88080567,2.735858445,-3.077973639
13.69388991,2.726535577,-3.085796454
13.50670784,2.721317207,-3.090175186
13.3440766,2.722121547,-3.089500265
13.21957829,2.728509251,-3.084140345
13.13366686,2.73869211,-3.075595912
13.07977078,2.751702698,-3.064678732
13.05652208,2.770247594,-3.049117717
13.07977078,2.78879249,-3.033556702
13.13366686,2.801803078,-3.022639522
13.21957829,2.811985937,-3.014095089
13.3440766,2.818373641,-3.008735169
13.50670784,2.819177981,-3.008060247
13.69388991,2.813959611,-3.01243898
13.88080567,2.804636743,-3.020261795
14.0428893,2.794243199,-3.028983014
14.16711846,2.785088693,-3.036664556
14.25361773,2.778132696,-3.042501331
14.30989647,2.773340547,-3.046522421
14.27598085,2.984055301,-3.288108388
14.30866152,2.986941771,-3.285686352
14.22345923,2.979583071,-3.291861035
14.14273458,2.97309145,-3.297308152
14.02679884,2.96454809,-3.304476881
13.87553576,2.95484841,-3.31261588
13.70109832,2.946147928,-3.319916451
13.52641235,2.941277931,-3.324002863
13.37463822,2.942028574,-3.323372999
13.2584513,2.947989841,-3.318370902
13.17827523,2.957492902,-3.310396887
13.12797721,2.969634915,-3.300208528
13.10628057,2.986941771,-3.285686352
13.12797721,3.004248627,-3.271164176
13.17827523,3.01639064,-3.260975817
13.2584513,3.025893701,-3.253001802
13.37463822,3.031854968,-3.247999705
13.52641235,3.032605611,-3.247369841
13.70109832,3.027735614,-3.251456253
13.87553576,3.019035133,-3.258756824
14.02679884,3.009335452,-3.266895823
14.14273458,3.000792092,-3.274064553
14.22345923,2.994300471,-3.27951167
14.27598085,2.989828241,-3.283264316
14.24206524,3.200955961,-3.524503764
14.27240811,3.203635948,-3.522254987
14.19330073,3.19680365,-3.527987966
14.11835069,3.190776405,-3.533045425
14.01070837,3.182844192,-3.539701343
13.87026585,3.173838374,-3.547258121
13.70830673,3.165760279,-3.554036448
13.54611686,3.161238656,-3.55783054
13.40519984,3.161935601,-3.557245733
13.29732431,3.167470431,-3.552601459
13.22288361,3.176293694,-3.545197863
13.17618364,3.187567132,-3.535738325
13.15603906,3.203635948,-3.522254987
13.17618364,3.219704764,-3.50877165
13.22288361,3.230978203,-3.499312112
13.29732431,3.239801465,-3.491908515
13.40519984,3.245336295,-3.487264242
13.54611686,3.246033241,-3.486679435
13.70830673,3.241511618,-3.490473527
13.87026585,3.233433522,-3.497251854
14.01070837,3.224427705,-3.504808632
14.11835069,3.216495492,-3.511464549
14.19330073,3.210468246,-3.516522009
14.24206524,3.206315936,-3.520006211
14.20814963,3.41785662,-3.76089914
14.2361547,3.420330125,-3.758823623
14.16314224,3.414024229,-3.764114898
14.09396681,3.40846136,-3.768782699
13.99461791,3.401140293,-3.774925804
13.86499594,3.392828339,-3.781900361
13.71551514,3.385372629,-3.788156445
13.56582137,3.38119938,-3.791658217
13.43576146,3.381842629,-3.791118467
13.33619733,3.386951021,-3.786832017
13.26749199,3.395094486,-3.779998839
13.22439007,3.40549935,-3.771268121
13.20579756,3.420330125,-3.758823623
13.22439007,3.435160901,-3.746379124
13.26749199,3.445565765,-3.737648406
13.33619733,3.45370923,-3.730815228
13.43576146,3.458817622,-3.726528778
13.56582137,3.459460871,-3.725989028
13.71551514,3.455287622,-3.7294908
13.86499594,3.447831912,-3.735746884
13.99461791,3.439519958,-3.742721441
14.09396681,3.432198891,-3.748864546
14.16314224,3.426636021,-3.753532348
14.20814963,3.42280363,-3.756748105
14.17423402,3.63475728,-3.997294515
14.19990129,3.637024303,-3.995392258
14.13298374,3.631244809,-4.000241829
14.06958292,3.626146315,-4.004519973
13.97852745,3.619436394,-4.010150265
13.85972603,3.611818304,-4.016542602
13.72272355,3.60498498,-4.022276442
13.58552588,3.601160104,-4.025485894
13.46632308,3.601749656,-4.024991201
13.37507034,3.606431611,-4.021062574
13.31210037,3.613895277,-4.014799814
13.2725965,3.623431567,-4.006797918
13.25555605,3.637024303,-3.995392258
13.2725965,3.650617039,-3.983986598
13.31210037,3.660153328,-3.975984701
13.37507034,3.667616994,-3.969721942
13.46632308,3.67229895,-3.965793315
13.58552588,3.672888501,-3.965298622
13.72272355,3.669063625,-3.968508074
13.85972603,3.662230301,-3.974241913
13.97852745,3.654612211,-3.98063425
14.06958292,3.64790229,-3.986264542
14.13298374,3.642803796,-3.990542687
14.17423402,3.639291325,-3.99349
14.1403184,3.85165794,-4.233689891
14.16364787,3.85371848,-4.231960893
14.10282524,3.848465388,-4.23636876
14.04519903,3.84383127,-4.240257247
13.96243698,3.837732496,-4.245374726
13.85445612,3.830808268,-4.251184843
13.72993196,3.82459733,-4.256396439
13.60523039,3.821120828,-4.259313571
13.4968847,3.821656683,-4.258863935
13.41394335,3.825912201,-4.255293131
13.35670875,3.832696069,-4.24960079
13.32080293,3.841363784,-4.242327714
13.30531454,3.85371848,-4.231960893
13.32080293,3.866073176,-4.221594072
13.35670875,3.87474089,-4.214320996
13.41394335,3.881524758,-4.208628655
