x,y,z
5.48968445,0.264667401,-8.052902375
5.621837719,0.2348090624,-8.042406344
5.707749065,0.2137089226,-8.035272598
5.707247405,0.2076889684,-8.038736813
5.620721972,0.2194567278,-8.051246524
5.488092062,0.2357650537,-8.069565179
5.298287214,0.2553708915,-8.09399454
5.051773213,0.274039599,-8.122253666
4.768920095,0.2854503396,-8.148171754
4.486942689,0.2842934948,-8.162933163
4.243086551,0.265749859,-8.161265475
4.057588563,0.2390731566,-8.143474184
3.931566562,0.2137716198,-8.113700205
3.855939476,0.1943204696,-8.075338368
6.916385765,-0.9023930806,0.4226685988
6.82118621,-0.9098671659,0.4240734386
6.883009941,-0.9713781944,0.001467433092
6.668216234,-0.9213771371,0.4262650549
6.726252167,-0.9832881712,0.00375469632
6.433159764,-0.9377901112,0.4294652069
6.485370822,-1.000219134,0.007089096825
6.095675779,-0.9584210762,0.4336738596
6.139514351,-1.021372026,0.01146130572
5.655546358,-0.9795240672,0.4383991622
5.688450949,-1.04274285,0.01634557269
5.148334849,-0.994560705,0.4426233928
5.168625401,-1.057529446,0.02067947261
4.64853226,-1.058389006,0.02318218987
4.640861891,-0.9962831715,0.4450969939
4.197405902,-1.039509059,0.02277085976
4.200663051,-0.9790915298,0.4447840343
3.852751868,-1.004499735,0.01974815197
3.864302818,-0.9460405969,0.4419243489
3.581829934,-0.9719754386,0.01671363505
3.600810716,-0.9146133723,0.4389607694
3.435492427,-0.9148065431,0.009864155235
3.457946003,-0.8590912883,0.4322876156
3.427859342,-0.7850084709,0.4226685988
3.462004119,-0.7125046977,0.4129767332
3.440722165,-0.7650464331,-0.009864155235
3.607675481,-0.6653006575,0.4061171235
3.590691102,-0.7182247866,-0.01671363505
3.872378239,-0.6496805951,0.4028829645
3.863221864,-0.7046782764,-0.01974815197
4.210323641,-0.6370354515,0.3997232464
4.209478465,-0.6937960833,-0.02277085976
4.65114437,-0.6478643168,0.3991985352
4.6608229,-0.7064311115,-0.02318218987
5.157895411,-0.6836474354,0.401666134
5.179589161,-0.7435684409,-0.02067947261
5.697116979,-0.7945802144,-0.01634557269
5.663377713,-0.7337999743,0.4060297236
6.14559086,-0.8473635722,-0.01146130572
6.101323913,-0.7861583621,0.4109817266
6.489129291,-0.8925906654,-0.007089096825
6.436725784,-0.8312448092,0.4154300985
6.728242817,-0.9262834181,-0.00375469632
6.67013179,-0.8649406186,0.4188307588
6.883787939,-0.9490992525,-0.001467433092
6.821941789,-0.8878075142,0.4211675626
6.852205881,-0.8411543015,0.8453371976
6.759362478,-0.8483561375,0.8466794441
6.6101803,-0.859466103,0.8487754134
6.380948705,-0.8753610887,0.851841317
6.051837207,-0.895470126,0.8558864135
5.622641768,-0.9163052841,0.8604527517
5.128044298,-0.931591964,0.864567313
4.633191522,-0.9341773374,0.867011798
4.2039202,-0.9186740003,0.8667972088
3.875853767,-0.8875814586,0.8641005458
3.619791498,-0.857251306,0.8612079038
3.480399578,-0.8033760336,0.8547110761
3.450173901,-0.7312275617,0.8453371976
3.483286073,-0.6599629623,0.8358176217
3.62465986,-0.6123765285,0.828947882
3.881534613,-0.5946829138,0.8255140809
4.211168816,-0.5802748198,0.8222173526
4.64146584,-0.589297522,0.8215792604
5.136201661,-0.62372643,0.8240117407
5.629638447,-0.6730197342,0.8284050198
6.057056967,-0.7249531519,0.8334247589
6.384322278,-0.7698989531,0.8379492939
6.612020764,-0.8035978191,0.8414162139
6.76009564,-0.8265157758,0.8438025584
6.788025997,-0.7799155224,1.268005796
6.697538746,-0.786845109,1.26928545
6.552144367,-0.7975550689,1.271285772
6.328737647,-0.8129320661,1.274217427
6.007998635,-0.8325191757,1.278098967
5.589737177,-0.853086501,1.282506341
5.107753746,-0.868623223,1.286511233
4.625521153,-0.8720715033,1.288926602
4.207177349,-0.8582564709,1.288810383
3.887404717,-0.8291223204,1.286276743
3.63877228,-0.7998892397,1.283455038
3.502853154,-0.7476607788,1.277134536
3.47248846,-0.6774466525,1.268005796
3.504568027,-0.6074212269,1.25865851
3.641644239,-0.5594523995,1.251778641
3.890690988,-0.5396852325,1.248145197
4.212013992,-0.523514188,1.244711459
4.63178731,-0.5307307273,1.243959985
5.114507911,-0.5638054246,1.246357347
5.595899181,-0.6122394941,1.250780316
6.012790021,-0.6637479418,1.255867791
6.331918771,-0.708553097,1.260468489
6.553909738,-0.7422550196,1.264001669
6.69824949,-0.7652240375,1.266437554
6.723846112,-0.7186767433,1.690674395
6.635715014,-0.7253340806,1.691891455
6.494108434,-0.7356440347,1.69379613
6.276526589,-0.7505030435,1.696593537
5.964160063,-0.7695682255,1.700311521
5.556832586,-0.7898677179,1.704559931
5.087463194,-0.805654482,1.708455153
4.617850784,-0.8099656692,1.710841406
4.210434498,-0.7978389414,1.710823558
3.898955666,-0.7706631821,1.70845294
3.657753062,-0.7425271734,1.705702172
3.525306729,-0.691945524,1.699557997
3.494803019,-0.6236657433,1.690674395
3.525849982,-0.5548794915,1.681499399
3.658628618,-0.5065282705,1.674609399
3.899847363,-0.4846875512,1.670776314
4.212859168,-0.4667535562,1.667205565
4.62210878,-0.4721639326,1.666340711
5.092814161,-0.5038844191,1.668702954
5.562159915,-0.5514592541,1.673155612
5.968523075,-0.6025427316,1.678310824
6.279515264,-0.6472072409,1.682987685
6.495798712,-0.6809122201,1.686587124
6.63640334,-0.7039322992,1.68907255
6.659666228,-0.6574379641,2.113342994
6.573891282,-0.6638230521,2.11449746
6.436072501,-0.6737330006,2.116306489
6.224315531,-0.688074021,2.118969647
5.920321492,-0.7066172753,2.122524075
5.523927995,-0.7266489349,2.12661352
5.067172642,-0.742685741,2.130399074
4.610180415,-0.7478598351,2.13275621
4.213691647,-0.737421412,2.132836732
3.910506616,-0.7122040439,2.130629136
3.676733843,-0.6851651071,2.127949307
3.547760305,-0.6362302693,2.121981457
3.517117577,-0.5698848341,2.113342994
3.547131936,-0.5023377561,2.104340287
3.675612997,-0.4536041414,2.097440158
3.909003738,-0.42968987,2.09340743
4.213704344,-0.4099929245,2.089699671
4.61243025,-0.4135971378,2.088721436
5.071120411,-0.4439634137,2.091048561
5.528420649,-0.490679014,2.095530909
5.924256129,-0.5413375215,2.100753856
6.227111758,-0.5858613848,2.10550688
6.437687685,-0.6195694206,2.109172579
6.57455719,-0.6426405608,2.111707546
6.595486344,-0.596199185,2.536011593
6.512067551,-0.6023120237,2.537103466
6.378036568,-0.6118219665,2.538816848
6.172104473,-0.6256449984,2.541345757
5.87648292,-0.643666325,2.544736629
5.491023405,-0.6634301518,2.54866711
5.04688209,-0.679717,2.552342994
4.602510046,-0.685754001,2.554671014
4.216948797,-0.6770038825,2.554849907
3.922057566,-0.6537449056,2.552805333
3.695714625,-0.6278030408,2.550196441
3.570213881,-0.5805150145,2.544404918
3.539432136,-0.5161039249,2.536011593
3.56841389,-0.4497960207,2.527181176
3.692597376,-0.4006800124,2.520270916
3.918160112,-0.3746921887,2.516038547
4.214549519,-0.3532322927,2.512193777
4.60275172,-0.3550303431,2.511102161
5.049426661,-0.3840424083,2.513394167
5.494681383,-0.4298987739,2.517906205
5.879989182,-0.4801323113,2.523196888
6.174708251,-0.5245155286,2.528026075
6.379576659,-0.5582266211,2.531758034
6.51271104,-0.5813488225,2.534342541
6.531306459,-0.5349604059,2.958680192
6.450243819,-0.5408009952,2.959709471
6.320000635,-0.5499109323,2.961327206
6.119893415,-0.5632159759,2.963721867
5.832644348,-0.5807153748,2.966949183
5.458118814,-0.6002113687,2.970720699
5.026591538,-0.616748259,2.974286914
4.594839677,-0.6236481669,2.976585818
4.220205946,-0.616586353,2.976863081
3.933608515,-0.5952857674,2.97498153
3.714695407,-0.5704409744,2.972443576
3.592667456,-0.5247997598,2.966828378
3.561746695,-0.4623230157,2.958680192
3.589695844,-0.3972542853,2.950022064
3.709581755,-0.3477558834,2.943101675
3.927316487,-0.3196945074,2.938669663
4.215394695,-0.296471661,2.934687884
4.59307319,-0.2964635483,2.933482886
5.027732911,-0.3241214028,2.935739774
5.460942117,-0.3691185338,2.940281501
5.835722236,-0.4189271012,2.94563992
6.122304744,-0.4631696725,2.950545271
6.321465633,-0.4968838216,2.954343489
6.450864891,-0.5200570841,2.956977537
6.467126575,-0.4737216268,3.38134879
6.388420087,-0.4792899668,3.382315477
6.261964702,-0.4879998982,3.383837565
6.067682357,-0.5007869533,3.386097978
5.788805776,-0.5177644245,3.389161737
5.425214223,-0.5369925857,3.392774289
5.006300986,-0.553779518,3.396230834
4.587169308,-0.5615423328,3.398500622
4.223463095,-0.5561688236,3.398876256
3.945159465,-0.5368266292,3.397157727
3.733676189,-0.5130789081,3.39469071
3.615121032,-0.469084505,3.389251839
3.584061254,-0.4085421064,3.38134879
3.610977798,-0.3447125499,3.372862953
3.726566134,-0.2948317543,3.365932433
3.936472862,-0.2646968261,3.36130078
4.216239871,-0.2397110292,3.35718199
4.58339466,-0.2378967536,3.355863611
5.006039161,-0.2642003974,3.358085381
5.427202851,-0.3083382938,3.362656797
5.79145529,-0.357721891,3.368082953
6.069901238,-0.4018238164,3.373064466
6.263354606,-0.4355410221,3.376928944
6.389018741,-0.4587653458,3.379612533
6.402946691,-0.4124828477,3.804017389
6.326596355,-0.4177789383,3.804921482
6.203928769,-0.4260888641,3.806347923
6.015471298,-0.4383579307,3.808474088
5.744967205,-0.4548134743,3.811374291
5.392309633,-0.4737738026,3.814827878
4.986010434,-0.490810777,3.818174754
4.579498939,-0.4994364987,3.820415426
4.226720244,-0.4957512941,3.82088943
3.956710415,-0.4783674909,3.819333924
3.752656971,-0.4557168418,3.816937844
3.637574607,-0.4133692502,3.811675299
3.606375813,-0.3547611972,3.804017389
3.632259752,-0.2921708145,3.795703841
3.743550512,-0.2419076253,3.788763192
3.945629236,-0.2096991448,3.783931896
4.217085047,-0.1829503974,3.779676096
4.57371613,-0.1793299589,3.778244336
4.984345411,-0.204279392,3.780430987
5.393463585,-0.2475580537,3.785032094
5.747188344,-0.2965166809,3.790525985
6.017497731,-0.3404779603,3.795583661
6.20524358,-0.3741982226,3.799514399
6.327172591,-0.3974736075,3.802247529
6.338766806,-0.3512440686,4.226685988
6.264772623,-0.3562679099,4.227527488
6.145892836,-0.3641778299,4.228858282
5.96326024,-0.3759289082,4.230850198
5.701128633,-0.3918625241,4.233586845
5.359405042,-0.4105550195,4.236881468
4.965719882,-0.427842036,4.240118675
4.57182857,-0.4373306646,4.24233023
4.229977393,-0.4353337647,4.242902605
3.968261364,-0.4199083527,4.241510121
3.771637753,-0.3983547755,4.239184979
3.660028183,-0.3576539955,4.234098759
3.628690371,-0.300980288,4.226685988
3.653541706,-0.2396290791,4.21854473
3.760534891,-0.1889834963,4.21159395
3.954785611,-0.1547014635,4.206563013
4.217930223,-0.1261897657,4.202170202
4.5640376,-0.1207631641,4.200625061
4.962651661,-0.1443583865,4.202776594
5.359724319,-0.1867778136,4.20740739
5.702921397,-0.2353114707,4.212969017
5.965094225,-0.2791321041,4.218102857
6.147132554,-0.3128554231,4.222099855
6.265326441,-0.3361818691,4.224882524
6.274586922,-0.2900052895,4.649354587
6.202948892,-0.2947568814,4.650133493
6.087856902,-0.3022667958,4.65136864
5.911049182,-0.3134998856,4.653226308
5.657290061,-0.3289115738,4.655799399
5.326500451,-0.3473362365,4.658935057
4.94542933,-0.364873295,4.662062595
4.564158201,-0.3752248305,4.664245034
4.233234542,-0.3749162352,4.664915779
3.979812314,-0.3614492144,4.663686318
3.790618535,-0.3409927092,4.661432113
3.682481758,-0.3019387407,4.65652222
3.65100493,-0.2471993788,4.649354587
3.67482366,-0.1870873437,4.641385618
3.77751927,-0.1360593672,4.634424709
3.963941986,-0.09970378219,4.629194129
4.218775398,-0.0694291339,4.624664308
4.55435907,-0.0621963694,4.623005786
4.940957911,-0.0844373811,4.6251222
5.325985053,-0.1259975735,4.629782686
5.658654451,-0.1741062606,4.63541205
5.912690718,-0.217786248,4.640622052
6.089021528,-0.2515126235,4.64468531
6.203480292,-0.2748901308,4.64751752
6.210407038,-0.2287665103,5.072023186
6.14112516,-0.2332458529,5.072739499
6.029820969,-0.2403557617,5.073878999
5.858838124,-0.2510708631,5.075602418
5.613451489,-0.2659606236,5.078011952
5.29359586,-0.2841174534,5.080988647
4.925138779,-0.301904554,5.084006515
4.556487832,-0.3131189964,5.086159838
4.236491692,-0.3144987058,5.086928954
3.991363263,-0.3029900762,5.085862515
3.809599317,-0.2836306429,5.083679247
3.704935334,-0.246223486,5.07894568
3.673319489,-0.1934184696,5.072023186
3.696105614,-0.1345456083,5.064226506
3.794503649,-0.08313523821,5.057255467
3.97309836,-0.04470610089,5.051825245
4.219620574,-0.01266850214,5.047158415
4.544680539,-0.003629574662,5.045386512
4.919264161,-0.02451637566,5.047467807
5.292245787,-0.06521733344,5.052157982
5.614387505,-0.1129010504,5.057855082
5.860287211,-0.1564403919,5.063141248
6.030910501,-0.190169824,5.067270765
6.141634142,-0.2135983925,5.070152516
6.146227153,-0.1675277312,5.494691784
6.079301428,-0.1717348245,5.495345504
5.971785036,-0.1784447276,5.496389357
5.806627066,-0.1886418405,5.497978528
5.569612917,-0.2030096734,5.500224506
5.26069127,-0.2208986703,5.503042236
4.904848227,-0.238935813,5.505950435
4.548817463,-0.2510131623,5.508074642
4.239748841,-0.2540811763,5.508942128
4.002914213,-0.2445309379,5.508038712
3.828580099,-0.2262685766,5.505926382
3.72738891,-0.1905082312,5.501369141
3.695634048,-0.1396375604,5.494691784
3.717387568,-0.08200387291,5.487067395
3.811488028,-0.03021110918,5.480086226
3.982254735,0.0102915804,5.474456362
4.22046575,0.04409212963,5.469652521
4.535002009,0.05493722007,5.467767237
4.897570411,0.03540462977,5.469813414
5.258506521,-0.004437093366,5.474533279
5.570120559,-0.05169584026,5.480298114
5.807883705,-0.09509453576,5.485660443
5.972799475,-0.1288270245,5.48985622
6.079787992,-0.1523066541,5.492787511
6.082047269,-0.1062889521,5.917360383
6.017477696,-0.110223796,5.91795151
5.913749103,-0.1165336934,5.918899716
5.754416008,-0.1262128179,5.920354638
5.525774346,-0.1400587231,5.92243706
5.227786679,-0.1576798872,5.925095826
4.884557675,-0.175967072,5.927894355
4.541147095,-0.1889073282,5.929989446
4.24300599,-0.1936636468,5.930955303
4.014465163,-0.1860717997,5.930214909
3.847560881,-0.1689065102,5.928173516
3.749842485,-0.1347929765,5.923792601
3.717948607,-0.08585665121,5.917360383
3.738669522,-0.02946213751,5.909908283
3.828472407,0.02271301985,5.902916984
3.99141111,0.0652892617,5.897087478
4.221310926,0.1008527614,5.892146627
4.525323479,0.1135040148,5.890147962
4.875876661,0.09532563521,5.89215902
5.224767255,0.05634314671,5.896908575
5.525853613,0.009509369897,5.902741147
5.755480198,-0.03374867964,5.908179638
5.914688449,-0.06748422502,5.912441675
6.017941842,-0.0910149158,5.915422507
6.017867385,-0.045050173,6.340028982
5.955653964,-0.04871276759,6.340557515
5.85571317,-0.0546226593,6.341410074
5.702204949,-0.06378379538,6.342730748
5.481935774,-0.07710777288,6.344649614
5.194882088,-0.09446110417,6.347149415
4.864267123,-0.1129983311,6.349838276
4.533476726,-0.1268014941,6.351904251
4.246263139,-0.1332461174,6.352968477
4.026016112,-0.1276126614,6.352391105
3.866541663,-0.1115444439,6.35042065
3.772296061,-0.07907772169,6.346216061
3.740263165,-0.032075742,6.340028982
3.759951476,0.02307959789,6.332749172
3.845456786,0.07563714888,6.325747743
4.000567484,0.120286943,6.319718595
4.222156101,0.1576133932,6.314640733
4.515644949,0.1720708095,6.312528687
4.854182911,0.1552466406,6.314504627
5.191027988,0.1171233868,6.319283871
5.481586666,0.07071458005,6.325184179
5.703076692,0.02759717649,6.330698834
5.856577423,-0.006141425513,6.33502713
5.956095692,-0.02972317747,6.338057503
5.9536875,0.01618860611,6.762697581
5.893830232,0.01279826087,6.763163521
5.797677237,0.007288374833,6.763920433
5.649993891,-0.001354772816,6.765106858
5.438097202,-0.01415682264,6.766862168
5.161977498,-0.0312423211,6.769203005
4.843976571,-0.05002959006,6.771782196
4.525806357,-0.06469566003,6.773819055
4.249520288,-0.07282858793,6.774981652
4.037567062,-0.06915352319,6.774567302
3.885522445,-0.05418237762,6.772667785
3.794749636,-0.02336246693,6.768639522
3.762577724,0.02170516721,6.762697581
3.78123343,0.07562133329,6.75559006
3.862441165,0.1285612779,6.748578501
4.009723859,0.1752846243,6.742349711
4.223001277,0.2143740249,6.737134839
4.505966419,0.2306376043,6.734909412
4.83248916,0.2151676461,6.736850234
5.157288722,0.1779036269,6.741659167
5.43731972,0.1319197902,6.747627211
5.650673185,0.08894303261,6.753218029
5.798466396,0.055201374,6.757612585
5.894249543,0.03156856087,6.760692499
5.889507616,0.07742738522,7.18536618
5.832006501,0.07430928932,7.185769526
5.739641304,0.06919940896,7.186430791
5.597782833,0.06107424974,7.187482968
5.39425863,0.0487941276,7.189074722
5.129072907,0.03197646197,7.191256594
4.823686019,0.01293915093,7.193726116
4.518135988,-0.002589825927,7.195733859
4.252777437,-0.01241105848,7.196994826
4.049118012,-0.01069438494,7.196743499
3.904503227,0.00317968869,7.194914919
3.817203212,0.03235278783,7.191062982
3.784892283,0.07548607641,7.18536618
3.802515384,0.1281630687,7.178430949
3.879425544,0.1814854069,7.17140926
4.018880234,0.2302823056,7.164980828
4.223846453,0.2711346567,7.159628946
4.496287889,0.289204399,7.157290137
4.81079541,0.2750886515,7.15919584
5.123549456,0.2386838669,7.164034464
5.393052774,0.1931250004,7.170070244
5.598269678,0.1502888887,7.175737224
5.74035537,0.1165441735,7.18019804
5.832403393,0.0928602992,7.183327494
5.825327732,0.1386661643,7.608034778
5.770182769,0.1358203178,7.608375532
5.681605371,0.1311104431,7.60894115
5.545571775,0.1235032723,7.609859078
5.350420059,0.1117450778,7.611287276
5.096168316,0.09519524504,7.613310184
4.803395467,0.07590789193,7.615670036
4.510465619,0.05951600817,7.617648663
4.256034587,0.04800647098,7.619008001
4.060668961,0.04776475331,7.618919696
3.923484009,0.060541755,7.617162053
3.839656788,0.08806804259,7.613486443
3.807206842,0.1292669856,7.608034778
3.823797338,0.1807048041,7.601271837
3.896409923,0.234409536,7.594240018
4.028036609,0.2852799869,7.587611944
4.224691629,0.3278952884,7.582123052
4.486609359,0.3477711938,7.579670862
4.78910166,0.3350096569,7.581541447
5.08981019,0.299464107,7.58640976
5.348785828,0.2543302105,7.592513276
5.545866172,0.2116347449,7.59825642
5.682244344,0.177886973,7.602783495
5.770557243,0.1541520375,7.60596249
5.761147847,0.1999049434,8.030703377
5.708359037,0.1973313462,8.030981537
5.623569437,0.1930214772,8.031451508
5.493360717,0.1859322949,8.032235189
5.306581487,0.1746960281,8.03349983
5.063263725,0.1584140281,8.035363774
4.783104915,0.1388766329,8.037613956
4.50279525,0.1216218423,8.039563467
4.259291736,0.1084240004,8.041021175
4.072219911,0.1062238916,8.041095893
3.94246479,0.1179038213,8.039409188
3.862110363,0.1437832973,8.035909903
3.8295214,0.1830478948,8.030703377
3.845079293,0.2332465395,8.024112726
3.913394302,0.287333665,8.017070777
4.037192983,0.3402776682,8.010243061
4.225536805,0.3846559202,8.004617158
4.476930829,0.4063379885,8.002051587
4.76740791,0.3949306624,8.003887054
5.056070924,0.3602443471,8.008785056
5.304518882,0.3155354207,8.014956308
5.493462665,0.272980601,8.020775615
5.624133318,0.2392297725,8.02536895
5.708711093,0.2154437759,8.028597486
5.707500339,0.2009063646,8.036957738
5.621439997,0.2021524309,8.046705074
5.489616491,0.2031664417,8.0609989
5.301150725,0.2026337247,8.080107821
5.056646638,0.1984896695,8.102297611
4.776363971,0.1896691592,8.122761825
4.497002987,0.1779088321,8.134552671
4.254893733,0.1626854744,8.133569551
4.069185963,0.1518678201,8.119862298
3.940809447,0.1507677997,8.096556952
3.861281878,0.161054444,8.066227499
3.849223939,0.2241864933,8.057903598
3.920194257,0.2702455948,8.080807756
4.044303327,0.3170125418,8.098096896
4.230885691,0.3575652112,8.107889289
4.478592504,0.3787828324,8.108087031
4.765187026,0.3703698193,8.098958592
5.051523528,0.3409733504,8.083532758
5.299678464,0.3021004259,8.067011003
5.48968445,0.264667401,8.052902375
5.621837719,0.2348090624,8.042406344
5.707749065,0.2137089226,8.035272598
5.707247405,0.2076889684,8.038736813
5.620721972,0.2194567278,8.051246524
5.488092062,0.2357650537,8.069565179
5.298287214,0.2553708915,8.09399454
5.051773213,0.274039599,8.122253666
4.768920095,0.2854503396,8.148171754
4.486942689,0.2842934948,8.162933163
4.243086551,0.265749859,8.161265475
4.057588563,0.2390731566,8.143474184
3.931566562,0.2137716198,8.113700205
3.855939476,0.1943204696,8.075338368
12.96648,0.12,-0.0
12.8767627,0.1110238975,-0.2446153846
12.94245934,0.12,-0.2446153846
12.89906204,0.1107070503,-0.0
12.76184716,0.09607195622,-0.2446153846
12.78113398,0.09522721864,-0.0
12.57518991,0.07370074528,-0.2446153846
12.58957955,0.07206601434,-0.0
12.30567154,0.0456014795,-0.2446153846
12.31298228,0.04297464799,-0.0
11.97593155,0.01936162216,-0.2446153846
11.9745693,0.01580992934,-0.0
11.63534529,0.002746796876,-0.0
11.64541403,0.00673574541,-0.2446153846
11.35741054,0.01068777585,-0.0
11.37461265,0.01438468317,-0.2446153846
11.16622613,0.03577036922,-0.0
11.18830606,0.03857630379,-0.2446153846
11.05315287,0.07160207045,-0.0
11.07803065,0.07313810348,-0.2446153846
11.01,0.12,-0.0
11.03571011,0.12,-0.2446153846
11.07803065,0.1668618965,-0.2446153846
11.05315287,0.1683979296,-0.0
11.18830606,0.2014236962,-0.2446153846
11.16622613,0.2042296308,-0.0
11.37461265,0.2256153168,-0.2446153846
11.35741054,0.2293122242,-0.0
11.64541403,0.2332642546,-0.2446153846
11.63534529,0.2372532031,-0.0
11.97593155,0.2206383778,-0.2446153846
11.9745693,0.2241900707,-0.0
12.31298228,0.197025352,-0.0
12.30567154,0.1943985205,-0.2446153846
12.58957955,0.1679339857,-0.0
12.57518991,0.1662992547,-0.2446153846
12.78113398,0.1447727814,-0.0
12.76184716,0.1439280438,-0.2446153846
12.89906204,0.1292929497,-0.0
12.8767627,0.1289761025,-0.2446153846
12.85446335,0.1113407448,-0.4892307692
12.91843869,0.12,-0.4892307692
12.74256034,0.09691669381,-0.4892307692
12.56080026,0.07533547622,-0.4892307692
12.2983608,0.048228311,-0.4892307692
11.97729379,0.02291331497,-0.4892307692
11.65548278,0.01072469394,-0.4892307692
11.39181476,0.01808159049,-0.4892307692
11.21038599,0.04138223836,-0.4892307692
11.10290842,0.07467413651,-0.4892307692
11.06142023,0.12,-0.4892307692
11.10290842,0.1653258635,-0.4892307692
11.21038599,0.1986177616,-0.4892307692
11.39181476,0.2219184095,-0.4892307692
11.65548278,0.2292753061,-0.4892307692
11.97729379,0.217086685,-0.4892307692
12.2983608,0.191771689,-0.4892307692
12.56080026,0.1646645238,-0.4892307692
12.74256034,0.1430833062,-0.4892307692
12.85446335,0.1286592552,-0.4892307692
12.832164,0.1116575921,-0.7338461538
12.89441803,0.12,-0.7338461538
12.72327352,0.0977614314,-0.7338461538
12.54641062,0.07697020716,-0.7338461538
12.29105007,0.05085514251,-0.7338461538
11.97865603,0.02646500779,-0.7338461538
11.66555152,0.01471364248,-0.7338461538
11.40901687,0.02177849781,-0.7338461538
11.23246592,0.04418817294,-0.7338461538
11.1277862,0.07621016954,-0.7338461538
11.08713034,0.12,-0.7338461538
11.1277862,0.1637898305,-0.7338461538
11.23246592,0.1958118271,-0.7338461538
11.40901687,0.2182215022,-0.7338461538
11.66555152,0.2252863575,-0.7338461538
11.97865603,0.2135349922,-0.7338461538
12.29105007,0.1891448575,-0.7338461538
12.54641062,0.1630297928,-0.7338461538
12.72327352,0.1422385686,-0.7338461538
12.832164,0.1283424079,-0.7338461538
12.80986466,0.1119744394,-0.9784615385
12.87039737,0.12,-0.9784615385
12.7039867,0.09860616899,-0.9784615385
12.53202098,0.0786049381,-0.9784615385
12.28373933,0.05348197402,-0.9784615385
11.98001827,0.03001670061,-0.9784615385
11.67562027,0.01870259101,-0.9784615385
11.42621898,0.02547540513,-0.9784615385
11.25454586,0.04699410751,-0.9784615385
11.15266397,0.07774620258,-0.9784615385
11.11284045,0.12,-0.9784615385
11.15266397,0.1622537974,-0.9784615385
11.25454586,0.1930058925,-0.9784615385
11.42621898,0.2145245949,-0.9784615385
11.67562027,0.221297409,-0.9784615385
11.98001827,0.2099832994,-0.9784615385
12.28373933,0.186518026,-0.9784615385
12.53202098,0.1613950619,-0.9784615385
12.7039867,0.141393831,-0.9784615385
12.80986466,0.1280255606,-0.9784615385
12.78756531,0.1122912867,-1.223076923
12.84637672,0.12,-1.223076923
12.68469988,0.09945090657,-1.223076923
12.51763134,0.08023966904,-1.223076923
12.27642859,0.05610880553,-1.223076923
11.98138052,0.03356839343,-1.223076923
11.68568901,0.02269153955,-1.223076923
11.44342109,0.02917231245,-1.223076923
11.27662579,0.04980004208,-1.223076923
11.17754175,0.07928223561,-1.223076923
11.13855056,0.12,-1.223076923
11.17754175,0.1607177644,-1.223076923
11.27662579,0.1901999579,-1.223076923
11.44342109,0.2108276875,-1.223076923
11.68568901,0.2173084605,-1.223076923
11.98138052,0.2064316066,-1.223076923
12.27642859,0.1838911945,-1.223076923
12.51763134,0.159760331,-1.223076923
12.68469988,0.1405490934,-1.223076923
12.78756531,0.1277087133,-1.223076923
12.76526597,0.112608134,-1.467692308
12.82235606,0.12,-1.467692308
12.66541306,0.1002956442,-1.467692308
12.50324169,0.08187439997,-1.467692308
12.26911785,0.05873563704,-1.467692308
11.98274276,0.03712008624,-1.467692308
11.69575776,0.02668048808,-1.467692308
11.4606232,0.03286921978,-1.467692308
11.29870572,0.05260597666,-1.467692308
11.20241952,0.08081826864,-1.467692308
11.16426068,0.12,-1.467692308
11.20241952,0.1591817314,-1.467692308
11.29870572,0.1873940233,-1.467692308
11.4606232,0.2071307802,-1.467692308
11.69575776,0.2133195119,-1.467692308
11.98274276,0.2028799138,-1.467692308
12.26911785,0.181264363,-1.467692308
12.50324169,0.1581256,-1.467692308
12.66541306,0.1397043558,-1.467692308
12.76526597,0.127391866,-1.467692308
12.74296662,0.1129249812,-1.712307692
12.79833541,0.12,-1.712307692
12.64612624,0.1011403817,-1.712307692
12.48885205,0.08350913091,-1.712307692
12.26180711,0.06136246855,-1.712307692
11.984105,0.04067177906,-1.712307692
11.70582651,0.03066943661,-1.712307692
11.47782531,0.0365661271,-1.712307692
11.32078565,0.05541191123,-1.712307692
11.2272973,0.08235430168,-1.712307692
11.18997079,0.12,-1.712307692
11.2272973,0.1576456983,-1.712307692
11.32078565,0.1845880888,-1.712307692
11.47782531,0.2034338729,-1.712307692
11.70582651,0.2093305634,-1.712307692
11.984105,0.1993282209,-1.712307692
12.26180711,0.1786375315,-1.712307692
12.48885205,0.1564908691,-1.712307692
12.64612624,0.1388596183,-1.712307692
12.74296662,0.1270750188,-1.712307692
12.72066728,0.1132418285,-1.956923077
12.77431475,0.12,-1.956923077
12.62683943,0.1019851193,-1.956923077
12.47446241,0.08514386185,-1.956923077
12.25449637,0.06398930006,-1.956923077
11.98546724,0.04422347188,-1.956923077
11.71589525,0.03465838515,-1.956923077
11.49502742,0.04026303442,-1.956923077
11.34286559,0.0582178458,-1.956923077
11.25217507,0.08389033471,-1.956923077
11.2156809,0.12,-1.956923077
11.25217507,0.1561096653,-1.956923077
11.34286559,0.1817821542,-1.956923077
11.49502742,0.1997369656,-1.956923077
11.71589525,0.2053416149,-1.956923077
11.98546724,0.1957765281,-1.956923077
12.25449637,0.1760106999,-1.956923077
12.47446241,0.1548561381,-1.956923077
12.62683943,0.1380148807,-1.956923077
12.72066728,0.1267581715,-1.956923077
12.69836793,0.1135586758,-2.201538462
12.75029409,0.12,-2.201538462
12.60755261,0.1028298569,-2.201538462
12.46007277,0.08677859279,-2.201538462
12.24718563,0.06661613157,-2.201538462
11.98682949,0.0477751647,-2.201538462
11.725964,0.03864733368,-2.201538462
11.51222953,0.04395994174,-2.201538462
11.36494552,0.06102378038,-2.201538462
11.27705285,0.08542636774,-2.201538462
11.24139102,0.12,-2.201538462
11.27705285,0.1545736323,-2.201538462
11.36494552,0.1789762196,-2.201538462
11.51222953,0.1960400583,-2.201538462
11.725964,0.2013526663,-2.201538462
11.98682949,0.1922248353,-2.201538462
12.24718563,0.1733838684,-2.201538462
12.46007277,0.1532214072,-2.201538462
12.60755261,0.1371701431,-2.201538462
12.69836793,0.1264413242,-2.201538462
12.67606858,0.1138755231,-2.446153846
12.72627344,0.12,-2.446153846
12.58826579,0.1036745945,-2.446153846
12.44568312,0.08841332373,-2.446153846
12.2398749,0.06924296308,-2.446153846
11.98819173,0.05132685751,-2.446153846
11.73603274,0.04263628221,-2.446153846
11.52943164,0.04765684906,-2.446153846
11.38702545,0.06382971495,-2.446153846
11.30193062,0.08696240077,-2.446153846
11.26710113,0.12,-2.446153846
11.30193062,0.1530375992,-2.446153846
11.38702545,0.176170285,-2.446153846
11.52943164,0.1923431509,-2.446153846
11.73603274,0.1973637178,-2.446153846
11.98819173,0.1886731425,-2.446153846
12.2398749,0.1707570369,-2.446153846
12.44568312,0.1515866763,-2.446153846
12.58826579,0.1363254055,-2.446153846
12.67606858,0.1261244769,-2.446153846
12.65376924,0.1141923704,-2.690769231
12.70225278,0.12,-2.690769231
12.56897897,0.1045193321,-2.690769231
12.43129348,0.09004805467,-2.690769231
12.23256416,0.07186979459,-2.690769231
11.98955397,0.05487855033,-2.690769231
11.74610149,0.04662523075,-2.690769231
11.54663375,0.05135375638,-2.690769231
11.40910538,0.06663564952,-2.690769231
11.3268084,0.08849843381,-2.690769231
11.29281124,0.12,-2.690769231
11.3268084,0.1515015662,-2.690769231
11.40910538,0.1733643505,-2.690769231
11.54663375,0.1886462436,-2.690769231
11.74610149,0.1933747693,-2.690769231
11.98955397,0.1851214497,-2.690769231
12.23256416,0.1681302054,-2.690769231
12.43129348,0.1499519453,-2.690769231
12.56897897,0.1354806679,-2.690769231
12.65376924,0.1258076296,-2.690769231
12.63146989,0.1145092177,-2.935384615
12.67823212,0.12,-2.935384615
12.54969215,0.1053640697,-2.935384615
12.41690384,0.09168278561,-2.935384615
12.22525342,0.0744966261,-2.935384615
11.99091621,0.05843024315,-2.935384615
11.75617023,0.05061417928,-2.935384615
11.56383586,0.05505066371,-2.935384615
11.43118531,0.0694415841,-2.935384615
11.35168617,0.09003446684,-2.935384615
11.31852136,0.12,-2.935384615
11.35168617,0.1499655332,-2.935384615
11.43118531,0.1705584159,-2.935384615
11.56383586,0.1849493363,-2.935384615
11.75617023,0.1893858207,-2.935384615
11.99091621,0.1815697569,-2.935384615
12.22525342,0.1655033739,-2.935384615
12.41690384,0.1483172144,-2.935384615
12.54969215,0.1346359303,-2.935384615
12.63146989,0.1254907823,-2.935384615
12.60917055,0.1148260649,-3.18
12.65421147,0.12,-3.18
12.53040533,0.1062088073,-3.18
12.4025142,0.09331751655,-3.18
12.21794268,0.0771234576,-3.18
11.99227846,0.06198193597,-3.18
11.76623898,0.05460312782,-3.18
11.58103797,0.05874757103,-3.18
11.45326525,0.07224751867,-3.18
11.37656395,0.09157049987,-3.18
11.34423147,0.12,-3.18
11.37656395,0.1484295001,-3.18
11.45326525,0.1677524813,-3.18
11.58103797,0.181252429,-3.18
11.76623898,0.1853968722,-3.18
11.99227846,0.178018064,-3.18
12.21794268,0.1628765424,-3.18
12.4025142,0.1466824835,-3.18
12.53040533,0.1337911927,-3.18
12.60917055,0.1251739351,-3.18
12.60886137,0.1163465687,-3.183636623
12.52966138,0.1102684848,-3.189687534
12.40143713,0.1012007314,-3.198714112
12.21704998,0.0898492009,-3.21000228
11.99250386,0.07927747153,-3.220475074
11.76811229,0.07413837583,-3.225510873
11.58403341,0.07701910599,-3.222605063
11.45626861,0.08643161853,-3.213273255
11.37858589,0.09996372844,-3.19988166
11.37858589,0.1400362716,-3.19988166
11.45626861,0.1535683815,-3.213273255
11.58403341,0.162980894,-3.222605063
11.76811229,0.1658616242,-3.225510873
11.99250386,0.1607225285,-3.220475074
12.21704998,0.1501507991,-3.21000228
12.40143713,0.1387992686,-3.198714112
12.52966138,0.1297315152,-3.189687534
12.60886137,0.1236534313,-3.183636623
12.6087333,0.12,-3.185142914
12.52935335,0.12,-3.193698484
12.40099157,0.12,-3.206455416
12.21668111,0.12,-3.222399061
11.99259689,0.12,-3.237180912
11.76888509,0.12,-3.244285579
11.58526956,0.12,-3.240187202
11.45750935,0.12,-3.227018899
11.37942243,0.12,-3.208107409
12.94245934,0.12,0.2446153846
12.8767627,0.1110238975,0.2446153846
12.76184716,0.09607195622,0.2446153846
12.57518991,0.07370074528,0.2446153846
12.30567154,0.0456014795,0.2446153846
11.97593155,0.01936162216,0.2446153846
11.64541403,0.00673574541,0.2446153846
11.37461265,0.01438468317,0.2446153846
11.18830606,0.03857630379,0.2446153846
11.07803065,0.07313810348,0.2446153846
11.03571011,0.12,0.2446153846
11.07803065,0.1668618965,0.2446153846
11.18830606,0.2014236962,0.2446153846
11.37461265,0.2256153168,0.2446153846
11.64541403,0.2332642546,0.2446153846
11.97593155,0.2206383778,0.2446153846
12.30567154,0.1943985205,0.2446153846
12.57518991,0.1662992547,0.2446153846
12.76184716,0.1439280438,0.2446153846
12.8767627,0.1289761025,0.2446153846
12.91843869,0.12,0.4892307692
12.85446335,0.1113407448,0.4892307692
12.74256034,0.09691669381,0.4892307692
12.56080026,0.07533547622,0.4892307692
12.2983608,0.048228311,0.4892307692
11.97729379,0.02291331497,0.4892307692
11.65548278,0.01072469394,0.4892307692
11.39181476,0.01808159049,0.4892307692
11.21038599,0.04138223836,0.4892307692
11.10290842,0.07467413651,0.4892307692
11.06142023,0.12,0.4892307692
11.10290842,0.1653258635,0.4892307692
11.21038599,0.1986177616,0.4892307692
11.39181476,0.2219184095,0.4892307692
11.65548278,0.2292753061,0.4892307692
11.97729379,0.217086685,0.4892307692
12.2983608,0.191771689,0.4892307692
12.56080026,0.1646645238,0.4892307692
12.74256034,0.1430833062,0.4892307692
12.85446335,0.1286592552,0.4892307692
12.89441803,0.12,0.7338461538
12.832164,0.1116575921,0.7338461538
12.72327352,0.0977614314,0.7338461538
12.54641062,0.07697020716,0.7338461538
12.29105007,0.05085514251,0.7338461538
11.97865603,0.02646500779,0.7338461538
11.66555152,0.01471364248,0.7338461538
11.40901687,0.02177849781,0.7338461538
11.23246592,0.04418817294,0.7338461538
11.1277862,0.07621016954,0.7338461538
11.08713034,0.12,0.7338461538
11.1277862,0.1637898305,0.7338461538
11.23246592,0.1958118271,0.7338461538
11.40901687,0.2182215022,0.7338461538
11.66555152,0.2252863575,0.7338461538
11.97865603,0.2135349922,0.7338461538
12.29105007,0.1891448575,0.7338461538
12.54641062,0.1630297928,0.7338461538
12.72327352,0.1422385686,0.7338461538
12.832164,0.1283424079,0.7338461538
12.87039737,0.12,0.9784615385
12.80986466,0.1119744394,0.9784615385
12.7039867,0.09860616899,0.9784615385
12.53202098,0.0786049381,0.9784615385
12.28373933,0.05348197402,0.9784615385
11.98001827,0.03001670061,0.9784615385
11.67562027,0.01870259101,0.9784615385
11.42621898,0.02547540513,0.9784615385
11.25454586,0.04699410751,0.9784615385
11.15266397,0.07774620258,0.9784615385
11.11284045,0.12,0.9784615385
11.15266397,0.1622537974,0.9784615385
11.25454586,0.1930058925,0.9784615385
11.42621898,0.2145245949,0.9784615385
11.67562027,0.221297409,0.9784615385
11.98001827,0.2099832994,0.9784615385
12.28373933,0.186518026,0.9784615385
12.53202098,0.1613950619,0.9784615385
12.7039867,0.141393831,0.9784615385
12.80986466,0.1280255606,0.9784615385
12.84637672,0.12,1.223076923
12.78756531,0.1122912867,1.223076923
12.68469988,0.09945090657,1.223076923
12.51763134,0.08023966904,1.223076923
12.27642859,0.05610880553,1.223076923
11.98138052,0.03356839343,1.223076923
11.68568901,0.02269153955,1.223076923
11.44342109,0.02917231245,1.223076923
11.27662579,0.04980004208,1.223076923
11.17754175,0.07928223561,1.223076923
11.13855056,0.12,1.223076923
11.17754175,0.1607177644,1.223076923
11.27662579,0.1901999579,1.223076923
11.44342109,0.2108276875,1.223076923
11.68568901,0.2173084605,1.223076923
11.98138052,0.2064316066,1.223076923
12.27642859,0.1838911945,1.223076923
12.51763134,0.159760331,1.223076923
12.68469988,0.1405490934,1.223076923
12.78756531,0.1277087133,1.223076923
12.82235606,0.12,1.467692308
12.76526597,0.112608134,1.467692308
12.66541306,0.1002956442,1.467692308
12.50324169,0.08187439997,1.467692308
12.26911785,0.05873563704,1.467692308
11.98274276,0.03712008624,1.467692308
11.69575776,0.02668048808,1.467692308
11.4606232,0.03286921978,1.467692308
11.29870572,0.05260597666,1.467692308
11.20241952,0.08081826864,1.467692308
11.16426068,0.12,1.467692308
11.20241952,0.1591817314,1.467692308
11.29870572,0.1873940233,1.467692308
11.4606232,0.2071307802,1.467692308
11.69575776,0.2133195119,1.467692308
11.98274276,0.2028799138,1.467692308
12.26911785,0.181264363,1.467692308
12.50324169,0.1581256,1.467692308
12.66541306,0.1397043558,1.467692308
12.76526597,0.127391866,1.467692308
12.79833541,0.12,1.712307692
12.74296662,0.1129249812,1.712307692
12.64612624,0.1011403817,1.712307692
12.48885205,0.08350913091,1.712307692
12.26180711,0.06136246855,1.712307692
11.984105,0.04067177906,1.712307692
11.70582651,0.03066943661,1.712307692
11.47782531,0.0365661271,1.712307692
11.32078565,0.05541191123,1.712307692
11.2272973,0.08235430168,1.712307692
11.18997079,0.12,1.712307692
11.2272973,0.1576456983,1.712307692
11.32078565,0.1845880888,1.712307692
11.47782531,0.2034338729,1.712307692
11.70582651,0.2093305634,1.712307692
11.984105,0.1993282209,1.712307692
12.26180711,0.1786375315,1.712307692
12.48885205,0.1564908691,1.712307692
12.64612624,0.1388596183,1.712307692
12.74296662,0.1270750188,1.712307692
12.77431475,0.12,1.956923077
12.72066728,0.1132418285,1.956923077
12.62683943,0.1019851193,1.956923077
12.47446241,0.08514386185,1.956923077
12.25449637,0.06398930006,1.956923077
11.98546724,0.04422347188,1.956923077
11.71589525,0.03465838515,1.956923077
11.49502742,0.04026303442,1.956923077
11.34286559,0.0582178458,1.956923077
11.25217507,0.08389033471,1.956923077
11.2156809,0.12,1.956923077
11.25217507,0.1561096653,1.956923077
11.34286559,0.1817821542,1.956923077
11.49502742,0.1997369656,1.956923077
11.71589525,0.2053416149,1.956923077
11.98546724,0.1957765281,1.956923077
12.25449637,0.1760106999,1.956923077
12.47446241,0.1548561381,1.956923077
12.62683943,0.1380148807,1.956923077
12.72066728,0.1267581715,1.956923077
12.75029409,0.12,2.201538462
12.69836793,0.1135586758,2.201538462
12.60755261,0.1028298569,2.201538462
12.46007277,0.08677859279,2.201538462
12.24718563,0.06661613157,2.201538462
11.98682949,0.0477751647,2.201538462
11.725964,0.03864733368,2.201538462
11.51222953,0.04395994174,2.201538462
11.36494552,0.06102378038,2.201538462
11.27705285,0.08542636774,2.201538462
11.24139102,0.12,2.201538462
11.27705285,0.1545736323,2.201538462
11.36494552,0.1789762196,2.201538462
11.51222953,0.1960400583,2.201538462
11.725964,0.2013526663,2.201538462
11.98682949,0.1922248353,2.201538462
12.24718563,0.1733838684,2.201538462
12.46007277,0.1532214072,2.201538462
12.60755261,0.1371701431,2.201538462
12.69836793,0.1264413242,2.201538462
12.72627344,0.12,2.446153846
12.67606858,0.1138755231,2.446153846
12.58826579,0.1036745945,2.446153846
12.44568312,0.08841332373,2.446153846
12.2398749,0.06924296308,2.446153846
11.98819173,0.05132685751,2.446153846
11.73603274,0.04263628221,2.446153846
11.52943164,0.04765684906,2.446153846
11.38702545,0.06382971495,2.446153846
11.30193062,0.08696240077,2.446153846
11.26710113,0.12,2.446153846
11.30193062,0.1530375992,2.446153846
11.38702545,0.176170285,2.446153846
11.52943164,0.1923431509,2.446153846
11.73603274,0.1973637178,2.446153846
11.98819173,0.1886731425,2.446153846
12.2398749,0.1707570369,2.446153846
12.44568312,0.1515866763,2.446153846
12.58826579,0.1363254055,2.446153846
12.67606858,0.1261244769,2.446153846
12.70225278,0.12,2.690769231
12.65376924,0.1141923704,2.690769231
12.56897897,0.1045193321,2.690769231
12.43129348,0.09004805467,2.690769231
12.23256416,0.07186979459,2.690769231
11.98955397,0.05487855033,2.690769231
11.74610149,0.04662523075,2.690769231
11.54663375,0.05135375638,2.690769231
11.40910538,0.06663564952,2.690769231
11.3268084,0.08849843381,2.690769231
11.29281124,0.12,2.690769231
11.3268084,0.1515015662,2.690769231
11.40910538,0.1733643505,2.690769231
11.54663375,0.1886462436,2.690769231
11.74610149,0.1933747693,2.690769231
11.98955397,0.1851214497,2.690769231
12.23256416,0.1681302054,2.690769231
12.43129348,0.1499519453,2.690769231
12.56897897,0.1354806679,2.690769231
12.65376924,0.1258076296,2.690769231
12.67823212,0.12,2.935384615
12.63146989,0.1145092177,2.935384615
12.54969215,0.1053640697,2.935384615
12.41690384,0.09168278561,2.935384615
12.22525342,0.0744966261,2.935384615
11.99091621,0.05843024315,2.935384615
11.75617023,0.05061417928,2.935384615
11.56383586,0.05505066371,2.935384615
11.43118531,0.0694415841,2.935384615
11.35168617,0.09003446684,2.935384615
11.31852136,0.12,2.935384615
11.35168617,0.1499655332,2.935384615
11.43118531,0.1705584159,2.935384615
11.56383586,0.1849493363,2.935384615
11.75617023,0.1893858207,2.935384615
11.99091621,0.1815697569,2.935384615
12.22525342,0.1655033739,2.935384615
12.41690384,0.1483172144,2.935384615
12.54969215,0.1346359303,2.935384615
12.63146989,0.1254907823,2.935384615
12.65421147,0.12,3.18
12.60917055,0.1148260649,3.18
12.53040533,0.1062088073,3.18
12.4025142,0.09331751655,3.18
12.21794268,0.0771234576,3.18
11.99227846,0.06198193597,3.18
11.76623898,0.05460312782,3.18
11.58103797,0.05874757103,3.18
11.45326525,0.07224751867,3.18
11.37656395,0.09157049987,3.18
11.34423147,0.12,3.18
11.37656395,0.1484295001,3.18
11.45326525,0.1677524813,3.18
11.58103797,0.181252429,3.18
11.76623898,0.1853968722,3.18
11.99227846,0.178018064,3.18
12.21794268,0.1628765424,3.18
12.4025142,0.1466824835,3.18
12.53040533,0.1337911927,3.18
12.60917055,0.1251739351,3.18
12.60886137,0.1163465687,3.183636623
12.52966138,0.1102684848,3.189687534
12.40143713,0.1012007314,3.198714112
12.21704998,0.0898492009,3.21000228
11.99250386,0.07927747153,3.220475074
11.76811229,0.07413837583,3.225510873
11.58403341,0.07701910599,3.222605063
11.45626861,0.08643161853,3.213273255
11.37858589,0.09996372844,3.19988166
11.37858589,0.1400362716,3.19988166
11.45626861,0.1535683815,3.213273255
11.58403341,0.162980894,3.222605063
11.76811229,0.1658616242,3.225510873
11.99250386,0.1607225285,3.220475074
12.21704998,0.1501507991,3.21000228
12.40143713,0.1387992686,3.198714112
12.52966138,0.1297315152,3.189687534
12.60886137,0.1236534313,3.183636623
12.6087333,0.12,3.185142914
12.52935335,0.12,3.193698484
12.40099157,0.12,3.206455416
12.21668111,0.12,3.222399061
11.99259689,0.12,3.237180912
11.76888509,0.12,3.244285579
11.58526956,0.12,3.240187202
11.45750935,0.12,3.227018899
11.37942243,0.12,3.208107409
13.7598,-0.63,-0.0
13.71350148,-0.63,4.864248975e-16
13.71350148,-0.63,-0.003216173595
13.64694061,-0.63,-0.007729825343
13.64694061,-0.63,6.504687446e-16
13.55321724,-0.63,-0.01387157958
13.55321724,-0.63,2.973492563e-16
13.42503984,-0.63,-0.02188257944
13.42503984,-0.63,-5.729148582e-17
13.25656456,-0.63,-0.03174925573
13.25656456,-0.63,-1.21207176e-16
13.04630859,-0.63,-0.04298493892
13.04630859,-0.63,-1.152398871e-16
12.80023897,-0.63,-0.05446268464
12.80023897,-0.63,-6.578096031e-17
12.5329919,-0.63,-0.06443181964
12.5329919,-0.63,-6.938893904e-17
12.26532158,-0.63,-3.469530736e-17
12.26532158,-0.63,-0.07092451594
12.01821786,-0.63,7.736336552e-18
12.01821786,-0.63,-0.07250677567
11.80691109,-0.63,5.907541277e-17
11.80691109,-0.63,-0.06888952052
11.6380763,-0.63,1.307104239e-16
11.6380763,-0.63,-0.06086558788
11.51091456,-0.63,2.234491821e-16
11.51091456,-0.63,-0.04963762801
11.42047569,-0.63,2.778434411e-16
11.42047569,-0.63,-0.03604012551
11.36203341,-0.63,1.441885181e-16
11.36203341,-0.63,-0.01977094245
11.34,-0.63,-0.0
11.36203341,-0.63,0.01977094245
11.42047569,-0.63,0.03604012551
11.51091456,-0.63,0.04963762801
11.6380763,-0.63,0.06086558788
11.80691109,-0.63,0.06888952052
12.01821786,-0.63,0.07250677567
12.26532158,-0.63,0.07092451594
12.5329919,-0.63,0.06443181964
12.80023897,-0.63,0.05446268464
13.04630859,-0.63,0.04298493892
13.25656456,-0.63,0.03174925573
13.42503984,-0.63,0.02188257944
13.55321724,-0.63,0.01387157958
13.64694061,-0.63,0.007729825343
13.71350148,-0.63,0.003216173595
13.71350148,-0.63,-0.00643234719
13.64694061,-0.63,-0.01545965069
13.55321724,-0.63,-0.02774315916
13.42503984,-0.63,-0.04376515888
13.25656456,-0.63,-0.06349851145
13.04630859,-0.63,-0.08596987785
12.80023897,-0.63,-0.1089253693
12.5329919,-0.63,-0.1288636393
12.26532158,-0.63,-0.1418490319
12.01821786,-0.63,-0.1450135513
11.80691109,-0.63,-0.137779041
11.6380763,-0.63,-0.1217311758
11.51091456,-0.63,-0.09927525602
11.42047569,-0.63,-0.07208025101
11.36203341,-0.63,-0.03954188491
11.36203341,-0.63,0.03954188491
11.42047569,-0.63,0.07208025101
11.51091456,-0.63,0.09927525602
11.6380763,-0.63,0.1217311758
11.80691109,-0.63,0.137779041
12.01821786,-0.63,0.1450135513
12.26532158,-0.63,0.1418490319
12.5329919,-0.63,0.1288636393
12.80023897,-0.63,0.1089253693
13.04630859,-0.63,0.08596987785
13.25656456,-0.63,0.06349851145
13.42503984,-0.63,0.04376515888
13.55321724,-0.63,0.02774315916
13.64694061,-0.63,0.01545965069
13.71350148,-0.63,0.00643234719
13.65626382,-0.05202,-0.005633944175
13.69751813,-0.05202,-3.539106785e-17
13.59695556,-0.05202,-0.01354069486
13.51344602,-0.05202,-0.02429936666
13.3992399,-0.05202,-0.03833231653
13.24913273,-0.05202,-0.05561575926
13.06180663,-0.05202,-0.07529748222
12.84258179,-0.05202,-0.09540379897
12.60450139,-0.05202,-0.1128699833
12.36605573,-0.05202,-0.1242521202
12.14593824,-0.05202,-0.1270417995
11.95770403,-0.05202,-0.1207357713
11.80728314,-0.05202,-0.1067224703
11.69394559,-0.05202,-0.08710904896
11.61325361,-0.05202,-0.06335577016
11.56091747,-0.05202,-0.03491228863
11.54087813,-0.05202,-3.539106785e-17
11.56091747,-0.05202,0.03491228863
11.61325361,-0.05202,0.06335577016
11.69394559,-0.05202,0.08710904896
11.80728314,-0.05202,0.1067224703
11.95770403,-0.05202,0.1207357713
12.14593824,-0.05202,0.1270417995
12.36605573,-0.05202,0.1242521202
12.60450139,-0.05202,0.1128699833
12.84258179,-0.05202,0.09540379897
13.06180663,-0.05202,0.07529748222
13.24913273,-0.05202,0.05561575926
13.3992399,-0.05202,0.03833231653
13.51344602,-0.05202,0.02429936666
13.59695556,-0.05202,0.01354069486
13.65626382,-0.05202,0.005633944175
13.59902616,0.52596,-0.004835541161
13.63523626,0.52596,-7.07821357e-17
13.5469705,0.52596,-0.01162173904
13.4736748,0.52596,-0.02085557417
13.37343996,0.52596,-0.03289947418
13.2417009,0.52596,-0.04773300706
13.07730468,0.52596,-0.0646250866
12.88492461,0.52596,-0.08188222868
12.67601088,0.52596,-0.09687632727
12.46678987,0.52596,-0.1066552086
12.27365861,0.52596,-0.1090700477
12.10849697,0.52596,-0.1036925016
11.97648998,0.52596,-0.09171376482
11.87697661,0.52596,-0.07494284191
11.80603153,0.52596,-0.0546312893
11.75980153,0.52596,-0.03028269236
11.74175626,0.52596,-7.07821357e-17
11.75980153,0.52596,0.03028269236
11.80603153,0.52596,0.0546312893
11.87697661,0.52596,0.07494284191
11.97648998,0.52596,0.09171376482
12.10849697,0.52596,0.1036925016
12.27365861,0.52596,0.1090700477
12.46678987,0.52596,0.1066552086
12.67601088,0.52596,0.09687632727
12.88492461,0.52596,0.08188222868
13.07730468,0.52596,0.0646250866
13.2417009,0.52596,0.04773300706
13.37343996,0.52596,0.03289947418
13.4736748,0.52596,0.02085557417
13.5469705,0.52596,0.01162173904
13.59902616,0.52596,0.004835541161
13.5417885,1.10394,-0.004037138146
13.57295439,1.10394,-1.061732035e-16
13.49698545,1.10394,-0.009702783218
13.43390357,1.10394,-0.01741178168
13.34764003,1.10394,-0.02746663184
13.23426907,1.10394,-0.03985025487
13.09280272,1.10394,-0.05395269097
12.92726743,1.10394,-0.06836065838
12.74752038,1.10394,-0.08088267126
12.56752402,1.10394,-0.08905829695
12.40137898,1.10394,-0.09109829589
12.25928991,1.10394,-0.08664923187
12.14569683,1.10394,-0.07670505935
12.06000764,1.10394,-0.06277663485
11.99880945,1.10394,-0.04590680845
11.9586856,1.10394,-0.02565309609
11.94263439,1.10394,-1.061732035e-16
11.9586856,1.10394,0.02565309609
11.99880945,1.10394,0.04590680845
12.06000764,1.10394,0.06277663485
12.14569683,1.10394,0.07670505935
12.25928991,1.10394,0.08664923187
12.40137898,1.10394,0.09109829589
12.56752402,1.10394,0.08905829695
12.74752038,1.10394,0.08088267126
12.92726743,1.10394,0.06836065838
13.09280272,1.10394,0.05395269097
13.23426907,1.10394,0.03985025487
13.34764003,1.10394,0.02746663184
13.43390357,1.10394,0.01741178168
13.49698545,1.10394,0.009702783218
13.5417885,1.10394,0.004037138146
13.48455084,1.68192,-0.003238735131
13.51067252,1.68192,-1.415642714e-16
13.44700039,1.68192,-0.007783827395
13.39413235,1.68192,-0.01396798919
13.32184009,1.68192,-0.02203378949
13.22683723,1.68192,-0.03196750267
13.10830077,1.68192,-0.04328029535
12.96961025,1.68192,-0.05483908808
12.81902987,1.68192,-0.06488901525
12.66825817,1.68192,-0.0714613853
12.52909936,1.68192,-0.07312654407
12.41008284,1.68192,-0.06960596215
12.31490367,1.68192,-0.06169635387
12.24303866,1.68192,-0.05061042779
12.19158736,1.68192,-0.03718232759
12.15756966,1.68192,-0.02102349982
12.14351252,1.68192,-1.415642714e-16
12.15756966,1.68192,0.02102349982
12.19158736,1.68192,0.03718232759
12.24303866,1.68192,0.05061042779
12.31490367,1.68192,0.06169635387
12.41008284,1.68192,0.06960596215
12.52909936,1.68192,0.07312654407
12.66825817,1.68192,0.0714613853
12.81902987,1.68192,0.06488901525
