x,y,z
4.218857133,-0.1761350691,-0.2020294737
3.676990204,-0.1080491241,-0.0
4.022251895,-0.1024496224,-0.2020294737
3.587,0.0,-0.0
3.936925313,0.0,-0.2020294737
4.022251895,0.1024496224,-0.2020294737
3.676990204,0.1080491241,-0.0
4.218857133,0.1761350691,-0.2020294737
3.884341127,0.1857619335,-0.0
4.520986004,0.2361889264,-0.2020294737
4.202983198,0.2490981033,-0.0
4.950743095,0.2819543684,-0.2020294737
4.656229157,0.297364908,-0.0
5.521193993,0.306584113,-0.2020294737
5.257858703,0.3233408196,-0.0
6.218599827,0.3037485809,-0.2020294737
5.993382053,0.3203503083,-0.0
6.992639265,0.2735706072,-0.2020294737
6.809727505,0.2885229227,-0.0
7.625060637,0.2366676061,-0.0
7.765718844,0.2244026232,-0.2020294737
8.358262395,0.1776496508,-0.0
8.4609234,0.1684431946,-0.2020294737
8.957968602,0.1222594338,-0.0
9.029550633,0.1159235017,-0.2020294737
9.411564748,0.07641141613,-0.0
9.459639764,0.07245149644,-0.2020294737
9.734745507,0.04165986994,-0.0
9.766072111,0.03950090276,-0.2020294737
9.955328366,0.01689563638,-0.0
9.975223558,0.01602004256,-0.2020294737
9.995118749,-0.01514444875,-0.4040589474
10.12614905,0.0,-0.4040589474
9.797398715,-0.03734193558,-0.4040589474
9.50771478,-0.06849157674,-0.4040589474
9.101132664,-0.1095875697,-0.4040589474
8.563584405,-0.1592367385,-0.4040589474
7.906377052,-0.2121376402,-0.4040589474
7.175551025,-0.2586182917,-0.4040589474
6.443817601,-0.2871468536,-0.4040589474
5.784529283,-0.2898274064,-0.4040589474
5.245257034,-0.2665438287,-0.4040589474
4.83898881,-0.2232797496,-0.4040589474
4.553373139,-0.1665082047,-0.4040589474
4.367513586,-0.09685012069,-0.4040589474
4.286850626,0.0,-0.4040589474
4.367513586,0.09685012069,-0.4040589474
4.553373139,0.1665082047,-0.4040589474
4.83898881,0.2232797496,-0.4040589474
5.245257034,0.2665438287,-0.4040589474
5.784529283,0.2898274064,-0.4040589474
6.443817601,0.2871468536,-0.4040589474
7.175551025,0.2586182917,-0.4040589474
7.906377052,0.2121376402,-0.4040589474
8.563584405,0.1592367385,-0.4040589474
9.101132664,0.1095875697,-0.4040589474
9.50771478,0.06849157674,-0.4040589474
9.797398715,0.03734193558,-0.4040589474
9.995118749,0.01514444875,-0.4040589474
10.01501394,-0.01426885494,-0.6060884211
10.13846857,0.0,-0.6060884211
9.82872532,-0.0351829684,-0.6060884211
9.555789796,-0.06453165704,-0.6060884211
9.172714695,-0.1032516376,-0.6060884211
8.66624541,-0.1500302824,-0.6060884211
8.04703526,-0.1998726573,-0.6060884211
7.358462784,-0.2436659761,-0.6060884211
6.669035374,-0.2705451263,-0.6060884211
6.047864573,-0.2730706998,-0.6060884211
5.539770972,-0.2511332891,-0.6060884211
5.156991615,-0.2103705727,-0.6060884211
4.887889145,-0.1568813404,-0.6060884211
4.712775277,-0.09125061899,-0.6060884211
4.636775939,0.0,-0.6060884211
4.712775277,0.09125061899,-0.6060884211
4.887889145,0.1568813404,-0.6060884211
5.156991615,0.2103705727,-0.6060884211
5.539770972,0.2511332891,-0.6060884211
6.047864573,0.2730706998,-0.6060884211
6.669035374,0.2705451263,-0.6060884211
7.358462784,0.2436659761,-0.6060884211
8.04703526,0.1998726573,-0.6060884211
8.66624541,0.1500302824,-0.6060884211
9.172714695,0.1032516376,-0.6060884211
9.555789796,0.06453165704,-0.6060884211
9.82872532,0.0351829684,-0.6060884211
10.01501394,0.01426885494,-0.6060884211
10.03490913,-0.01339326112,-0.8081178947
10.15078809,0.0,-0.8081178947
9.860051924,-0.03302400122,-0.8081178947
9.603864811,-0.06057173734,-0.8081178947
9.244296726,-0.09691570559,-0.8081178947
8.768906415,-0.1408238262,-0.8081178947
8.187693468,-0.1876076744,-0.8081178947
7.541374544,-0.2287136606,-0.8081178947
6.894253148,-0.2539433989,-0.8081178947
6.311199863,-0.2563139932,-0.8081178947
5.834284911,-0.2357227495,-0.8081178947
5.474994421,-0.1974613958,-0.8081178947
5.22240515,-0.147254476,-0.8081178947
5.058036967,-0.08565111729,-0.8081178947
4.986701252,0.0,-0.8081178947
5.058036967,0.08565111729,-0.8081178947
5.22240515,0.147254476,-0.8081178947
5.474994421,0.1974613958,-0.8081178947
5.834284911,0.2357227495,-0.8081178947
6.311199863,0.2563139932,-0.8081178947
6.894253148,0.2539433989,-0.8081178947
7.541374544,0.2287136606,-0.8081178947
8.187693468,0.1876076744,-0.8081178947
8.768906415,0.1408238262,-0.8081178947
9.244296726,0.09691570559,-0.8081178947
9.603864811,0.06057173734,-0.8081178947
9.860051924,0.03302400122,-0.8081178947
10.03490913,0.01339326112,-0.8081178947
10.05480432,-0.01251766731,-1.010147368
10.16310762,0.0,-1.010147368
9.891378528,-0.03086503404,-1.010147368
9.651939827,-0.05661181765,-1.010147368
9.315878757,-0.09057977354,-1.010147368
8.87156742,-0.1316173701,-1.010147368
8.328351676,-0.1753426914,-1.010147368
7.724286304,-0.213761345,-1.010147368
7.119470921,-0.2373416716,-1.010147368
6.574535153,-0.2395572866,-1.010147368
6.128798849,-0.2203122099,-1.010147368
5.792997226,-0.184552219,-1.010147368
5.556921156,-0.1376276116,-1.010147368
5.403298658,-0.08005161558,-1.010147368
5.336626565,0.0,-1.010147368
5.403298658,0.08005161558,-1.010147368
5.556921156,0.1376276116,-1.010147368
5.792997226,0.184552219,-1.010147368
6.128798849,0.2203122099,-1.010147368
6.574535153,0.2395572866,-1.010147368
7.119470921,0.2373416716,-1.010147368
7.724286304,0.213761345,-1.010147368
8.328351676,0.1753426914,-1.010147368
8.87156742,0.1316173701,-1.010147368
9.315878757,0.09057977354,-1.010147368
9.651939827,0.05661181765,-1.010147368
9.891378528,0.03086503404,-1.010147368
10.05480432,0.01251766731,-1.010147368
10.07469952,-0.01164207349,-1.212176842
10.17542714,0.0,-1.212176842
9.922705132,-0.02870606686,-1.212176842
9.700014843,-0.05265189795,-1.212176842
9.387460787,-0.0842438415,-1.212176842
8.974228425,-0.1224109139,-1.212176842
8.469009884,-0.1630777085,-1.212176842
7.907198063,-0.1988090295,-1.212176842
7.344688695,-0.2207399443,-1.212176842
6.837870443,-0.22280058,-1.212176842
6.423312788,-0.2049016702,-1.212176842
6.111000032,-0.1716430421,-1.212176842
5.891437162,-0.1280007473,-1.212176842
5.748560349,-0.07445211388,-1.212176842
5.686551878,0.0,-1.212176842
5.748560349,0.07445211388,-1.212176842
5.891437162,0.1280007473,-1.212176842
6.111000032,0.1716430421,-1.212176842
6.423312788,0.2049016702,-1.212176842
6.837870443,0.22280058,-1.212176842
7.344688695,0.2207399443,-1.212176842
7.907198063,0.1988090295,-1.212176842
8.469009884,0.1630777085,-1.212176842
8.974228425,0.1224109139,-1.212176842
9.387460787,0.0842438415,-1.212176842
9.700014843,0.05265189795,-1.212176842
9.922705132,0.02870606686,-1.212176842
10.07469952,0.01164207349,-1.212176842
10.09459471,-0.01076647968,-1.414206316
10.18774667,0.0,-1.414206316
9.954031736,-0.02654709968,-1.414206316
9.748089859,-0.04869197825,-1.414206316
9.459042818,-0.07790790946,-1.414206316
9.07688943,-0.1132044578,-1.414206316
8.609668092,-0.1508127255,-1.414206316
8.090109823,-0.183856714,-1.414206316
7.569906469,-0.2041382169,-1.414206316
7.101205733,-0.2060438734,-1.414206316
6.717826726,-0.1894911306,-1.414206316
6.429002838,-0.1587338652,-1.414206316
6.225953168,-0.1183738829,-1.414206316
6.09382204,-0.06885261218,-1.414206316
6.036477191,0.0,-1.414206316
6.09382204,0.06885261218,-1.414206316
6.225953168,0.1183738829,-1.414206316
6.429002838,0.1587338652,-1.414206316
6.717826726,0.1894911306,-1.414206316
7.101205733,0.2060438734,-1.414206316
7.569906469,0.2041382169,-1.414206316
8.090109823,0.183856714,-1.414206316
8.609668092,0.1508127255,-1.414206316
9.07688943,0.1132044578,-1.414206316
9.459042818,0.07790790946,-1.414206316
9.748089859,0.04869197825,-1.414206316
9.954031736,0.02654709968,-1.414206316
10.09459471,0.01076647968,-1.414206316
10.1144899,-0.009890885866,-1.616235789
10.20006619,0.0,-1.616235789
9.98535834,-0.0243881325,-1.616235789
9.796164874,-0.04473205855,-1.616235789
9.530624849,-0.07157197741,-1.616235789
9.179550435,-0.1039980016,-1.616235789
8.7503263,-0.1385477426,-1.616235789
8.273021583,-0.1689043984,-1.616235789
7.795124242,-0.1875364896,-1.616235789
7.364541023,-0.1892871668,-1.616235789
7.012340665,-0.174080591,-1.616235789
6.747005643,-0.1458246883,-1.616235789
6.560469174,-0.1087470185,-1.616235789
6.43908373,-0.06325311047,-1.616235789
6.386402504,0.0,-1.616235789
6.43908373,0.06325311047,-1.616235789
6.560469174,0.1087470185,-1.616235789
6.747005643,0.1458246883,-1.616235789
7.012340665,0.174080591,-1.616235789
7.364541023,0.1892871668,-1.616235789
7.795124242,0.1875364896,-1.616235789
8.273021583,0.1689043984,-1.616235789
8.7503263,0.1385477426,-1.616235789
9.179550435,0.1039980016,-1.616235789
9.530624849,0.07157197741,-1.616235789
9.796164874,0.04473205855,-1.616235789
9.98535834,0.0243881325,-1.616235789
10.1144899,0.009890885866,-1.616235789
10.13438509,-0.009015292051,-1.818265263
10.21238571,0.0,-1.818265263
10.01668494,-0.02222916532,-1.818265263
9.84423989,-0.04077213886,-1.818265263
9.60220688,-0.06523604537,-1.818265263
9.28221144,-0.09479154551,-1.818265263
8.890984508,-0.1262827597,-1.818265263
8.455933342,-0.1539520829,-1.818265263
8.020342016,-0.1709347623,-1.818265263
7.627876312,-0.1725304603,-1.818265263
7.306854603,-0.1586700513,-1.818265263
7.065008449,-0.1329155115,-1.818265263
6.89498518,-0.09912015416,-1.818265263
6.784345421,-0.05765360877,-1.818265263
6.736327817,0.0,-1.818265263
6.784345421,0.05765360877,-1.818265263
6.89498518,0.09912015416,-1.818265263
7.065008449,0.1329155115,-1.818265263
7.306854603,0.1586700513,-1.818265263
7.627876312,0.1725304603,-1.818265263
8.020342016,0.1709347623,-1.818265263
8.455933342,0.1539520829,-1.818265263
8.890984508,0.1262827597,-1.818265263
9.28221144,0.09479154551,-1.818265263
9.60220688,0.06523604537,-1.818265263
9.84423989,0.04077213886,-1.818265263
10.01668494,0.02222916532,-1.818265263
10.13438509,0.009015292051,-1.818265263
10.15428028,-0.008139698237,-2.020294737
10.22470524,0.0,-2.020294737
10.04801155,-0.02007019815,-2.020294737
9.892314906,-0.03681221916,-2.020294737
9.673788911,-0.05890011333,-2.020294737
9.384872445,-0.08558508936,-2.020294737
9.031642716,-0.1140177767,-2.020294737
8.638845102,-0.1389997673,-2.020294737
8.245559789,-0.1543330349,-2.020294737
7.891211602,-0.1557737537,-2.020294737
7.601368542,-0.1432595117,-2.020294737
7.383011254,-0.1200063346,-2.020294737
7.229501185,-0.08949328979,-2.020294737
7.129607112,-0.05205410706,-2.020294737
7.08625313,0.0,-2.020294737
7.129607112,0.05205410706,-2.020294737
7.229501185,0.08949328979,-2.020294737
7.383011254,0.1200063346,-2.020294737
7.601368542,0.1432595117,-2.020294737
7.891211602,0.1557737537,-2.020294737
8.245559789,0.1543330349,-2.020294737
8.638845102,0.1389997673,-2.020294737
9.031642716,0.1140177767,-2.020294737
9.384872445,0.08558508936,-2.020294737
9.673788911,0.05890011333,-2.020294737
9.892314906,0.03681221916,-2.020294737
10.04801155,0.02007019815,-2.020294737
10.15428028,0.008139698237,-2.020294737
10.17417547,-0.007264104423,-2.222324211
10.23702476,0.0,-2.222324211
10.07933815,-0.01791123097,-2.222324211
9.940389922,-0.03285229946,-2.222324211
9.745370942,-0.05256418128,-2.222324211
9.48753345,-0.07637863322,-2.222324211
9.172300923,-0.1017527938,-2.222324211
8.821756862,-0.1240474518,-2.222324211
8.470777563,-0.1377313076,-2.222324211
8.154546892,-0.1390170471,-2.222324211
7.89588248,-0.1278489721,-2.222324211
7.70101406,-0.1070971577,-2.222324211
7.564017191,-0.07986642541,-2.222324211
7.474868803,-0.04645460536,-2.222324211
7.436178444,0.0,-2.222324211
7.474868803,0.04645460536,-2.222324211
7.564017191,0.07986642541,-2.222324211
7.70101406,0.1070971577,-2.222324211
7.89588248,0.1278489721,-2.222324211
8.154546892,0.1390170471,-2.222324211
8.470777563,0.1377313076,-2.222324211
8.821756862,0.1240474518,-2.222324211
9.172300923,0.1017527938,-2.222324211
9.48753345,0.07637863322,-2.222324211
9.745370942,0.05256418128,-2.222324211
9.940389922,0.03285229946,-2.222324211
10.07933815,0.01791123097,-2.222324211
10.17417547,0.007264104423,-2.222324211
10.19407067,-0.006388510609,-2.424353684
10.24934428,0.0,-2.424353684
10.11066476,-0.01575226379,-2.424353684
9.988464937,-0.02889237976,-2.424353684
9.816952973,-0.04622824924,-2.424353684
9.590194455,-0.06717217708,-2.424353684
9.312959131,-0.08948781085,-2.424353684
9.004668621,-0.1090951363,-2.424353684
8.695995336,-0.1211295803,-2.424353684
8.417882182,-0.1222603405,-2.424353684
8.190396419,-0.1124384324,-2.424353684
8.019016866,-0.09418798085,-2.424353684
7.898533197,-0.07023956104,-2.424353684
7.820130494,-0.04085510366,-2.424353684
7.786103757,0.0,-2.424353684
7.820130494,0.04085510366,-2.424353684
7.898533197,0.07023956104,-2.424353684
8.019016866,0.09418798085,-2.424353684
8.190396419,0.1124384324,-2.424353684
8.417882182,0.1222603405,-2.424353684
8.695995336,0.1211295803,-2.424353684
9.004668621,0.1090951363,-2.424353684
9.312959131,0.08948781085,-2.424353684
9.590194455,0.06717217708,-2.424353684
9.816952973,0.04622824924,-2.424353684
9.988464937,0.02889237976,-2.424353684
10.11066476,0.01575226379,-2.424353684
10.19407067,0.006388510609,-2.424353684
10.21396586,-0.005512916795,-2.626383158
10.26166381,0.0,-2.626383158
10.14199136,-0.01359329661,-2.626383158
10.03653995,-0.02493246007,-2.626383158
9.888535004,-0.0398923172,-2.626383158
9.69285546,-0.05796572094,-2.626383158
9.453617339,-0.07722282791,-2.626383158
9.187580381,-0.09414282071,-2.626383158
8.92121311,-0.1045278529,-2.626383158
8.681217472,-0.1055036339,-2.626383158
8.484910357,-0.09702789281,-2.626383158
8.337019671,-0.08127880398,-2.626383158
8.233049203,-0.06061269667,-2.626383158
8.165392184,-0.03525560195,-2.626383158
8.13602907,0.0,-2.626383158
8.165392184,0.03525560195,-2.626383158
8.233049203,0.06061269667,-2.626383158
8.337019671,0.08127880398,-2.626383158
8.484910357,0.09702789281,-2.626383158
8.681217472,0.1055036339,-2.626383158
8.92121311,0.1045278529,-2.626383158
9.187580381,0.09414282071,-2.626383158
9.453617339,0.07722282791,-2.626383158
9.69285546,0.05796572094,-2.626383158
9.888535004,0.0398923172,-2.626383158
10.03653995,0.02493246007,-2.626383158
10.14199136,0.01359329661,-2.626383158
10.21396586,0.005512916795,-2.626383158
10.23386105,-0.004637322981,-2.828412632
10.27398333,0.0,-2.828412632
10.17331796,-0.01143432943,-2.828412632
10.08461497,-0.02097254037,-2.828412632
9.960117034,-0.03355638515,-2.828412632
9.795516465,-0.0487592648,-2.828412632
9.594275547,-0.06495784497,-2.828412632
9.370492141,-0.07919050517,-2.828412632
9.146430884,-0.0879261256,-2.828412632
8.944552762,-0.08874692729,-2.828412632
8.779424296,-0.08161735318,-2.828412632
8.655022477,-0.0683696271,-2.828412632
8.567565209,-0.0509858323,-2.828412632
8.510653875,-0.02965610025,-2.828412632
8.485954383,0.0,-2.828412632
8.510653875,0.02965610025,-2.828412632
8.567565209,0.0509858323,-2.828412632
8.655022477,0.0683696271,-2.828412632
8.779424296,0.08161735318,-2.828412632
8.944552762,0.08874692729,-2.828412632
9.146430884,0.0879261256,-2.828412632
9.370492141,0.07919050517,-2.828412632
9.594275547,0.06495784497,-2.828412632
9.795516465,0.0487592648,-2.828412632
9.960117034,0.03355638515,-2.828412632
10.08461497,0.02097254037,-2.828412632
10.17331796,0.01143432943,-2.828412632
10.23386105,0.004637322981,-2.828412632
10.25375624,-0.003761729166,-3.030442105
10.28630285,0.0,-3.030442105
10.20464457,-0.009275362248,-3.030442105
10.13268998,-0.01701262067,-3.030442105
10.03169907,-0.02722045311,-3.030442105
9.898177469,-0.03955280865,-3.030442105
9.734933755,-0.05269286203,-3.030442105
9.5534039,-0.06423818963,-3.030442105
9.371648657,-0.07132439827,-3.030442105
9.207888052,-0.0719902207,-3.030442105
9.073938234,-0.06620681355,-3.030442105
8.973025282,-0.05546045023,-3.030442105
8.902081215,-0.04135896793,-3.030442105
8.855915566,-0.02405659855,-3.030442105
8.835879696,0.0,-3.030442105
8.855915566,0.02405659855,-3.030442105
8.902081215,0.04135896793,-3.030442105
8.973025282,0.05546045023,-3.030442105
9.073938234,0.06620681355,-3.030442105
9.207888052,0.0719902207,-3.030442105
9.371648657,0.07132439827,-3.030442105
9.5534039,0.06423818963,-3.030442105
9.734933755,0.05269286203,-3.030442105
9.898177469,0.03955280865,-3.030442105
10.03169907,0.02722045311,-3.030442105
10.13268998,0.01701262067,-3.030442105
10.20464457,0.009275362248,-3.030442105
10.25375624,0.003761729166,-3.030442105
10.27365143,-0.002886135352,-3.232471579
10.29862238,0.0,-3.232471579
10.23597117,-0.007116395068,-3.232471579
10.180765,-0.01305270097,-3.232471579
10.1032811,-0.02088452107,-3.232471579
10.00083847,-0.03034635251,-3.232471579
9.875591963,-0.04042787909,-3.232471579
9.73631566,-0.04928587409,-3.232471579
9.596866431,-0.05472267093,-3.232471579
9.471223342,-0.0552335141,-3.232471579
9.368452173,-0.05079627392,-3.232471579
9.291028088,-0.04255127336,-3.232471579
9.23659722,-0.03173210356,-3.232471579
9.201177257,-0.01845709684,-3.232471579
9.185805009,0.0,-3.232471579
9.201177257,0.01845709684,-3.232471579
9.23659722,0.03173210356,-3.232471579
9.291028088,0.04255127336,-3.232471579
9.368452173,0.05079627392,-3.232471579
9.471223342,0.0552335141,-3.232471579
9.596866431,0.05472267093,-3.232471579
9.73631566,0.04928587409,-3.232471579
9.875591963,0.04042787909,-3.232471579
10.00083847,0.03034635251,-3.232471579
10.1032811,0.02088452107,-3.232471579
10.180765,0.01305270097,-3.232471579
10.23597117,0.007116395068,-3.232471579
10.27365143,0.002886135352,-3.232471579
10.29354663,-0.002010541538,-3.434501053
10.3109419,0.0,-3.434501053
10.26729778,-0.004957427889,-3.434501053
10.22884002,-0.009092781276,-3.434501053
10.17486313,-0.01454858902,-3.434501053
10.10349948,-0.02113989637,-3.434501053
10.01625017,-0.02816289615,-3.434501053
9.919227419,-0.03433355855,-3.434501053
9.822084204,-0.0381209436,-3.434501053
9.734558632,-0.03847680751,-3.434501053
9.662966111,-0.03538573429,-3.434501053
9.609030894,-0.02964209649,-3.434501053
9.571113226,-0.02210523919,-3.434501053
9.546438947,-0.01285759514,-3.434501053
9.535730322,0.0,-3.434501053
9.546438947,0.01285759514,-3.434501053
9.571113226,0.02210523919,-3.434501053
9.609030894,0.02964209649,-3.434501053
9.662966111,0.03538573429,-3.434501053
9.734558632,0.03847680751,-3.434501053
9.822084204,0.0381209436,-3.434501053
9.919227419,0.03433355855,-3.434501053
10.01625017,0.02816289615,-3.434501053
10.10349948,0.02113989637,-3.434501053
10.17486313,0.01454858902,-3.434501053
10.22884002,0.009092781276,-3.434501053
10.26729778,0.004957427889,-3.434501053
10.29354663,0.002010541538,-3.434501053
10.31344182,-0.001134947724,-3.636530526
10.32326142,0.0,-3.636530526
10.29862438,-0.002798460709,-3.636530526
10.27691503,-0.005132861579,-3.636530526
10.24644516,-0.008212656981,-3.636530526
10.20616048,-0.01193344023,-3.636530526
10.15690838,-0.01589791322,-3.636530526
10.10213918,-0.01938124301,-3.636530526
10.04730198,-0.02151921627,-3.636530526
9.997893922,-0.02172010092,-3.636530526
9.95748005,-0.01997519465,-3.636530526
9.927033699,-0.01673291961,-3.636530526
9.905629232,-0.01247837482,-3.636530526
9.891700638,-0.007258093434,-3.636530526
9.885655635,0.0,-3.636530526
9.891700638,0.007258093434,-3.636530526
9.905629232,0.01247837482,-3.636530526
9.927033699,0.01673291961,-3.636530526
9.95748005,0.01997519465,-3.636530526
9.997893922,0.02172010092,-3.636530526
10.04730198,0.02151921627,-3.636530526
10.10213918,0.01938124301,-3.636530526
10.15690838,0.01589791322,-3.636530526
10.20616048,0.01193344023,-3.636530526
10.24644516,0.008212656981,-3.636530526
10.27691503,0.005132861579,-3.636530526
10.29862438,0.002798460709,-3.636530526
10.31344182,0.001134947724,-3.636530526
10.33333701,-0.0002593539096,-3.83856
10.33558095,0.0,-3.83856
10.32995099,-0.0006394935297,-3.83856
10.32499005,-0.001172941881,-3.83856
10.31802719,-0.001876724938,-3.83856
10.30882149,-0.002726984083,-3.83856
10.29756659,-0.003632930276,-3.83856
10.28505094,-0.004428927467,-3.83856
10.27251975,-0.004917488933,-3.83856
10.26122921,-0.004963394324,-3.83856
10.25199399,-0.004564655024,-3.83856
10.2450365,-0.003823742742,-3.83856
10.24014524,-0.002851510451,-3.83856
10.23696233,-0.00165859173,-3.83856
10.23558095,0.0,-3.83856
10.23696233,0.00165859173,-3.83856
10.24014524,0.002851510451,-3.83856
10.2450365,0.003823742742,-3.83856
10.25199399,0.004564655024,-3.83856
10.26122921,0.004963394324,-3.83856
10.27251975,0.004917488933,-3.83856
10.28505094,0.004428927467,-3.83856
10.29756659,0.003632930276,-3.83856
10.30882149,0.002726984083,-3.83856
10.31802719,0.001876724938,-3.83856
10.32499005,0.001172941881,-3.83856
10.32995099,0.0006394935297,-3.83856
10.33333701,0.0002593539096,-3.83856
10.33333701,-0.0001296769548,-3.83856
10.32995099,-0.0003197467648,-3.83856
10.32499005,-0.0005864709405,-3.83856
10.31802719,-0.000938362469,-3.83856
10.30882149,-0.001363492042,-3.83856
10.29756659,-0.001816465138,-3.83856
10.28505094,-0.002214463734,-3.83856
10.27251975,-0.002458744466,-3.83856
10.26122921,-0.002481697162,-3.83856
10.25199399,-0.002282327512,-3.83856
10.2450365,-0.001911871371,-3.83856
10.24014524,-0.001425755226,-3.83856
10.23696233,-0.0008292958649,-3.83856
10.23696233,0.0008292958649,-3.83856
10.24014524,0.001425755226,-3.83856
10.2450365,0.001911871371,-3.83856
10.25199399,0.002282327512,-3.83856
10.26122921,0.002481697162,-3.83856
10.27251975,0.002458744466,-3.83856
10.28505094,0.002214463734,-3.83856
10.29756659,0.001816465138,-3.83856
10.30882149,0.001363492042,-3.83856
10.31802719,0.000938362469,-3.83856
10.32499005,0.0005864709405,-3.83856
10.32995099,0.0003197467648,-3.83856
10.33333701,0.0001296769548,-3.83856
10.33333701,1.906615633e-17,-3.83856
10.32995099,2.399838323e-17,-3.83856
10.32499005,8.293062752e-18,-3.83856
10.31802719,9.195374881e-19,-3.83856
10.30882149,2.725503729e-18,-3.83856
10.29756659,1.134684656e-18,-3.83856
10.28505094,8.67361738e-19,-3.83856
10.27251975,2.522505131e-21,-3.83856
10.26122921,-4.350568755e-19,-3.83856
10.25199399,-2.765015903e-18,-3.83856
10.2450365,-1.835205048e-18,-3.83856
10.24014524,-4.991423235e-18,-3.83856
10.23696233,-1.022416158e-17,-3.83856
10.11382952,0.0,0.2020294737
9.975223558,-0.01602004256,0.2020294737
9.766072111,-0.03950090276,0.2020294737
9.459639764,-0.07245149644,0.2020294737
9.029550633,-0.1159235017,0.2020294737
8.4609234,-0.1684431946,0.2020294737
7.765718844,-0.2244026232,0.2020294737
6.992639265,-0.2735706072,0.2020294737
6.218599827,-0.3037485809,0.2020294737
5.521193993,-0.306584113,0.2020294737
4.950743095,-0.2819543684,0.2020294737
4.520986004,-0.2361889264,0.2020294737
4.218857133,-0.1761350691,0.2020294737
4.022251895,-0.1024496224,0.2020294737
3.936925313,0.0,0.2020294737
4.022251895,0.1024496224,0.2020294737
4.218857133,0.1761350691,0.2020294737
4.520986004,0.2361889264,0.2020294737
4.950743095,0.2819543684,0.2020294737
5.521193993,0.306584113,0.2020294737
6.218599827,0.3037485809,0.2020294737
6.992639265,0.2735706072,0.2020294737
7.765718844,0.2244026232,0.2020294737
8.4609234,0.1684431946,0.2020294737
9.029550633,0.1159235017,0.2020294737
9.459639764,0.07245149644,0.2020294737
9.766072111,0.03950090276,0.2020294737
9.975223558,0.01602004256,0.2020294737
10.12614905,0.0,0.4040589474
9.995118749,-0.01514444875,0.4040589474
9.797398715,-0.03734193558,0.4040589474
9.50771478,-0.06849157674,0.4040589474
9.101132664,-0.1095875697,0.4040589474
8.563584405,-0.1592367385,0.4040589474
7.906377052,-0.2121376402,0.4040589474
7.175551025,-0.2586182917,0.4040589474
6.443817601,-0.2871468536,0.4040589474
5.784529283,-0.2898274064,0.4040589474
5.245257034,-0.2665438287,0.4040589474
4.83898881,-0.2232797496,0.4040589474
4.553373139,-0.1665082047,0.4040589474
4.367513586,-0.09685012069,0.4040589474
4.286850626,0.0,0.4040589474
4.367513586,0.09685012069,0.4040589474
4.553373139,0.1665082047,0.4040589474
4.83898881,0.2232797496,0.4040589474
5.245257034,0.2665438287,0.4040589474
5.784529283,0.2898274064,0.4040589474
6.443817601,0.2871468536,0.4040589474
7.175551025,0.2586182917,0.4040589474
7.906377052,0.2121376402,0.4040589474
8.563584405,0.1592367385,0.4040589474
9.101132664,0.1095875697,0.4040589474
9.50771478,0.06849157674,0.4040589474
9.797398715,0.03734193558,0.4040589474
9.995118749,0.01514444875,0.4040589474
10.13846857,0.0,0.6060884211
10.01501394,-0.01426885494,0.6060884211
9.82872532,-0.0351829684,0.6060884211
9.555789796,-0.06453165704,0.6060884211
9.172714695,-0.1032516376,0.6060884211
8.66624541,-0.1500302824,0.6060884211
8.04703526,-0.1998726573,0.6060884211
7.358462784,-0.2436659761,0.6060884211
6.669035374,-0.2705451263,0.6060884211
6.047864573,-0.2730706998,0.6060884211
5.539770972,-0.2511332891,0.6060884211
5.156991615,-0.2103705727,0.6060884211
4.887889145,-0.1568813404,0.6060884211
4.712775277,-0.09125061899,0.6060884211
4.636775939,0.0,0.6060884211
4.712775277,0.09125061899,0.6060884211
4.887889145,0.1568813404,0.6060884211
5.156991615,0.2103705727,0.6060884211
5.539770972,0.2511332891,0.6060884211
6.047864573,0.2730706998,0.6060884211
6.669035374,0.2705451263,0.6060884211
7.358462784,0.2436659761,0.6060884211
8.04703526,0.1998726573,0.6060884211
8.66624541,0.1500302824,0.6060884211
9.172714695,0.1032516376,0.6060884211
9.555789796,0.06453165704,0.6060884211
9.82872532,0.0351829684,0.6060884211
10.01501394,0.01426885494,0.6060884211
10.15078809,0.0,0.8081178947
10.03490913,-0.01339326112,0.8081178947
9.860051924,-0.03302400122,0.8081178947
9.603864811,-0.06057173734,0.8081178947
9.244296726,-0.09691570559,0.8081178947
8.768906415,-0.1408238262,0.8081178947
8.187693468,-0.1876076744,0.8081178947
7.541374544,-0.2287136606,0.8081178947
6.894253148,-0.2539433989,0.8081178947
6.311199863,-0.2563139932,0.8081178947
5.834284911,-0.2357227495,0.8081178947
5.474994421,-0.1974613958,0.8081178947
5.22240515,-0.147254476,0.8081178947
5.058036967,-0.08565111729,0.8081178947
4.986701252,0.0,0.8081178947
5.058036967,0.08565111729,0.8081178947
5.22240515,0.147254476,0.8081178947
5.474994421,0.1974613958,0.8081178947
5.834284911,0.2357227495,0.8081178947
6.311199863,0.2563139932,0.8081178947
6.894253148,0.2539433989,0.8081178947
7.541374544,0.2287136606,0.8081178947
8.187693468,0.1876076744,0.8081178947
8.768906415,0.1408238262,0.8081178947
9.244296726,0.09691570559,0.8081178947
9.603864811,0.06057173734,0.8081178947
9.860051924,0.03302400122,0.8081178947
10.03490913,0.01339326112,0.8081178947
10.16310762,0.0,1.010147368
10.05480432,-0.01251766731,1.010147368
9.891378528,-0.03086503404,1.010147368
9.651939827,-0.05661181765,1.010147368
9.315878757,-0.09057977354,1.010147368
8.87156742,-0.1316173701,1.010147368
8.328351676,-0.1753426914,1.010147368
7.724286304,-0.213761345,1.010147368
7.119470921,-0.2373416716,1.010147368
6.574535153,-0.2395572866,1.010147368
6.128798849,-0.2203122099,1.010147368
5.792997226,-0.184552219,1.010147368
5.556921156,-0.1376276116,1.010147368
5.403298658,-0.08005161558,1.010147368
5.336626565,0.0,1.010147368
5.403298658,0.08005161558,1.010147368
5.556921156,0.1376276116,1.010147368
5.792997226,0.184552219,1.010147368
6.128798849,0.2203122099,1.010147368
6.574535153,0.2395572866,1.010147368
7.119470921,0.2373416716,1.010147368
7.724286304,0.213761345,1.010147368
8.328351676,0.1753426914,1.010147368
8.87156742,0.1316173701,1.010147368
9.315878757,0.09057977354,1.010147368
9.651939827,0.05661181765,1.010147368
9.891378528,0.03086503404,1.010147368
10.05480432,0.01251766731,1.010147368
10.17542714,0.0,1.212176842
10.07469952,-0.01164207349,1.212176842
9.922705132,-0.02870606686,1.212176842
9.700014843,-0.05265189795,1.212176842
9.387460787,-0.0842438415,1.212176842
8.974228425,-0.1224109139,1.212176842
8.469009884,-0.1630777085,1.212176842
7.907198063,-0.1988090295,1.212176842
7.344688695,-0.2207399443,1.212176842
6.837870443,-0.22280058,1.212176842
6.423312788,-0.2049016702,1.212176842
6.111000032,-0.1716430421,1.212176842
5.891437162,-0.1280007473,1.212176842
5.748560349,-0.07445211388,1.212176842
5.686551878,0.0,1.212176842
5.748560349,0.07445211388,1.212176842
5.891437162,0.1280007473,1.212176842
6.111000032,0.1716430421,1.212176842
6.423312788,0.2049016702,1.212176842
6.837870443,0.22280058,1.212176842
7.344688695,0.2207399443,1.212176842
7.907198063,0.1988090295,1.212176842
8.469009884,0.1630777085,1.212176842
8.974228425,0.1224109139,1.212176842
9.387460787,0.0842438415,1.212176842
9.700014843,0.05265189795,1.212176842
9.922705132,0.02870606686,1.212176842
10.07469952,0.01164207349,1.212176842
10.18774667,0.0,1.414206316
10.09459471,-0.01076647968,1.414206316
9.954031736,-0.02654709968,1.414206316
9.748089859,-0.04869197825,1.414206316
9.459042818,-0.07790790946,1.414206316
9.07688943,-0.1132044578,1.414206316
8.609668092,-0.1508127255,1.414206316
8.090109823,-0.183856714,1.414206316
7.569906469,-0.2041382169,1.414206316
7.101205733,-0.2060438734,1.414206316
6.717826726,-0.1894911306,1.414206316
6.429002838,-0.1587338652,1.414206316
6.225953168,-0.1183738829,1.414206316
6.09382204,-0.06885261218,1.414206316
6.036477191,0.0,1.414206316
6.09382204,0.06885261218,1.414206316
6.225953168,0.1183738829,1.414206316
6.429002838,0.1587338652,1.414206316
6.717826726,0.1894911306,1.414206316
7.101205733,0.2060438734,1.414206316
7.569906469,0.2041382169,1.414206316
8.090109823,0.183856714,1.414206316
8.609668092,0.1508127255,1.414206316
9.07688943,0.1132044578,1.414206316
9.459042818,0.07790790946,1.414206316
9.748089859,0.04869197825,1.414206316
9.954031736,0.02654709968,1.414206316
10.09459471,0.01076647968,1.414206316
10.20006619,0.0,1.616235789
10.1144899,-0.009890885866,1.616235789
9.98535834,-0.0243881325,1.616235789
9.796164874,-0.04473205855,1.616235789
9.530624849,-0.07157197741,1.616235789
9.179550435,-0.1039980016,1.616235789
8.7503263,-0.1385477426,1.616235789
8.273021583,-0.1689043984,1.616235789
7.795124242,-0.1875364896,1.616235789
7.364541023,-0.1892871668,1.616235789
7.012340665,-0.174080591,1.616235789
6.747005643,-0.1458246883,1.616235789
6.560469174,-0.1087470185,1.616235789
6.43908373,-0.06325311047,1.616235789
6.386402504,0.0,1.616235789
6.43908373,0.06325311047,1.616235789
6.560469174,0.1087470185,1.616235789
6.747005643,0.1458246883,1.616235789
7.012340665,0.174080591,1.616235789
7.364541023,0.1892871668,1.616235789
7.795124242,0.1875364896,1.616235789
8.273021583,0.1689043984,1.616235789
8.7503263,0.1385477426,1.616235789
9.179550435,0.1039980016,1.616235789
9.530624849,0.07157197741,1.616235789
9.796164874,0.04473205855,1.616235789
9.98535834,0.0243881325,1.616235789
10.1144899,0.009890885866,1.616235789
10.21238571,0.0,1.818265263
10.13438509,-0.009015292051,1.818265263
10.01668494,-0.02222916532,1.818265263
9.84423989,-0.04077213886,1.818265263
9.60220688,-0.06523604537,1.818265263
9.28221144,-0.09479154551,1.818265263
8.890984508,-0.1262827597,1.818265263
8.455933342,-0.1539520829,1.818265263
8.020342016,-0.1709347623,1.818265263
7.627876312,-0.1725304603,1.818265263
7.306854603,-0.1586700513,1.818265263
7.065008449,-0.1329155115,1.818265263
6.89498518,-0.09912015416,1.818265263
6.784345421,-0.05765360877,1.818265263
6.736327817,0.0,1.818265263
6.784345421,0.05765360877,1.818265263
6.89498518,0.09912015416,1.818265263
7.065008449,0.1329155115,1.818265263
7.306854603,0.1586700513,1.818265263
7.627876312,0.1725304603,1.818265263
8.020342016,0.1709347623,1.818265263
8.455933342,0.1539520829,1.818265263
8.890984508,0.1262827597,1.818265263
9.28221144,0.09479154551,1.818265263
9.60220688,0.06523604537,1.818265263
9.84423989,0.04077213886,1.818265263
10.01668494,0.02222916532,1.818265263
10.13438509,0.009015292051,1.818265263
10.22470524,0.0,2.020294737
10.15428028,-0.008139698237,2.020294737
10.04801155,-0.02007019815,2.020294737
9.892314906,-0.03681221916,2.020294737
9.673788911,-0.05890011333,2.020294737
9.384872445,-0.08558508936,2.020294737
9.031642716,-0.1140177767,2.020294737
8.638845102,-0.1389997673,2.020294737
8.245559789,-0.1543330349,2.020294737
7.891211602,-0.1557737537,2.020294737
7.601368542,-0.1432595117,2.020294737
7.383011254,-0.1200063346,2.020294737
7.229501185,-0.08949328979,2.020294737
7.129607112,-0.05205410706,2.020294737
7.08625313,0.0,2.020294737
7.129607112,0.05205410706,2.020294737
7.229501185,0.08949328979,2.020294737
7.383011254,0.1200063346,2.020294737
7.601368542,0.1432595117,2.020294737
7.891211602,0.1557737537,2.020294737
8.245559789,0.1543330349,2.020294737
8.638845102,0.1389997673,2.020294737
9.031642716,0.1140177767,2.020294737
9.384872445,0.08558508936,2.020294737
9.673788911,0.05890011333,2.020294737
9.892314906,0.03681221916,2.020294737
10.04801155,0.02007019815,2.020294737
10.15428028,0.008139698237,2.020294737
10.23702476,0.0,2.222324211
10.17417547,-0.007264104423,2.222324211
10.07933815,-0.01791123097,2.222324211
9.940389922,-0.03285229946,2.222324211
9.745370942,-0.05256418128,2.222324211
9.48753345,-0.07637863322,2.222324211
9.172300923,-0.1017527938,2.222324211
8.821756862,-0.1240474518,2.222324211
8.470777563,-0.1377313076,2.222324211
8.154546892,-0.1390170471,2.222324211
7.89588248,-0.1278489721,2.222324211
7.70101406,-0.1070971577,2.222324211
7.564017191,-0.07986642541,2.222324211
7.474868803,-0.04645460536,2.222324211
7.436178444,0.0,2.222324211
7.474868803,0.04645460536,2.222324211
7.564017191,0.07986642541,2.222324211
7.70101406,0.1070971577,2.222324211
7.89588248,0.1278489721,2.222324211
8.154546892,0.1390170471,2.222324211
8.470777563,0.1377313076,2.222324211
8.821756862,0.1240474518,2.222324211
9.172300923,0.1017527938,2.222324211
9.48753345,0.07637863322,2.222324211
9.745370942,0.05256418128,2.222324211
9.940389922,0.03285229946,2.222324211
10.07933815,0.01791123097,2.222324211
10.17417547,0.007264104423,2.222324211
10.24934428,0.0,2.424353684
10.19407067,-0.006388510609,2.424353684
10.11066476,-0.01575226379,2.424353684
9.988464937,-0.02889237976,2.424353684
9.816952973,-0.04622824924,2.424353684
9.590194455,-0.06717217708,2.424353684
9.312959131,-0.08948781085,2.424353684
9.004668621,-0.1090951363,2.424353684
8.695995336,-0.1211295803,2.424353684
8.417882182,-0.1222603405,2.424353684
8.190396419,-0.1124384324,2.424353684
8.019016866,-0.09418798085,2.424353684
7.898533197,-0.07023956104,2.424353684
7.820130494,-0.04085510366,2.424353684
7.786103757,0.0,2.424353684
7.820130494,0.04085510366,2.424353684
7.898533197,0.07023956104,2.424353684
8.019016866,0.09418798085,2.424353684
8.190396419,0.1124384324,2.424353684
8.417882182,0.1222603405,2.424353684
8.695995336,0.1211295803,2.424353684
9.004668621,0.1090951363,2.424353684
9.312959131,0.08948781085,2.424353684
9.590194455,0.06717217708,2.424353684
9.816952973,0.04622824924,2.424353684
9.988464937,0.02889237976,2.424353684
10.11066476,0.01575226379,2.424353684
10.19407067,0.006388510609,2.424353684
10.26166381,0.0,2.626383158
10.21396586,-0.005512916795,2.626383158
10.14199136,-0.01359329661,2.626383158
10.03653995,-0.02493246007,2.626383158
9.888535004,-0.0398923172,2.626383158
9.69285546,-0.05796572094,2.626383158
9.453617339,-0.07722282791,2.626383158
9.187580381,-0.09414282071,2.626383158
8.92121311,-0.1045278529,2.626383158
8.681217472,-0.1055036339,2.626383158
8.484910357,-0.09702789281,2.626383158
8.337019671,-0.08127880398,2.626383158
8.233049203,-0.06061269667,2.626383158
8.165392184,-0.03525560195,2.626383158
8.13602907,0.0,2.626383158
8.165392184,0.03525560195,2.626383158
8.233049203,0.06061269667,2.626383158
8.337019671,0.08127880398,2.626383158
8.484910357,0.09702789281,2.626383158
8.681217472,0.1055036339,2.626383158
8.92121311,0.1045278529,2.626383158
9.187580381,0.09414282071,2.626383158
9.453617339,0.07722282791,2.626383158
9.69285546,0.05796572094,2.626383158
9.888535004,0.0398923172,2.626383158
10.03653995,0.02493246007,2.626383158
10.14199136,0.01359329661,2.626383158
10.21396586,0.005512916795,2.626383158
10.27398333,0.0,2.828412632
10.23386105,-0.004637322981,2.828412632
10.17331796,-0.01143432943,2.828412632
10.08461497,-0.02097254037,2.828412632
9.960117034,-0.03355638515,2.828412632
9.795516465,-0.0487592648,2.828412632
9.594275547,-0.06495784497,2.828412632
9.370492141,-0.07919050517,2.828412632
9.146430884,-0.0879261256,2.828412632
8.944552762,-0.08874692729,2.828412632
8.779424296,-0.08161735318,2.828412632
8.655022477,-0.0683696271,2.828412632
8.567565209,-0.0509858323,2.828412632
8.510653875,-0.02965610025,2.828412632
8.485954383,0.0,2.828412632
8.510653875,0.02965610025,2.828412632
8.567565209,0.0509858323,2.828412632
8.655022477,0.0683696271,2.828412632
8.779424296,0.08161735318,2.828412632
8.944552762,0.08874692729,2.828412632
9.146430884,0.0879261256,2.828412632
9.370492141,0.07919050517,2.828412632
9.594275547,0.06495784497,2.828412632
9.795516465,0.0487592648,2.828412632
9.960117034,0.03355638515,2.828412632
10.08461497,0.02097254037,2.828412632
10.17331796,0.01143432943,2.828412632
10.23386105,0.004637322981,2.828412632
10.28630285,0.0,3.030442105
10.25375624,-0.003761729166,3.030442105
10.20464457,-0.009275362248,3.030442105
10.13268998,-0.01701262067,3.030442105
10.03169907,-0.02722045311,3.030442105
9.898177469,-0.03955280865,3.030442105
9.734933755,-0.05269286203,3.030442105
9.5534039,-0.06423818963,3.030442105
9.371648657,-0.07132439827,3.030442105
9.207888052,-0.0719902207,3.030442105
9.073938234,-0.06620681355,3.030442105
8.973025282,-0.05546045023,3.030442105
8.902081215,-0.04135896793,3.030442105
8.855915566,-0.02405659855,3.030442105
8.835879696,0.0,3.030442105
8.855915566,0.02405659855,3.030442105
8.902081215,0.04135896793,3.030442105
8.973025282,0.05546045023,3.030442105
9.073938234,0.06620681355,3.030442105
9.207888052,0.0719902207,3.030442105
9.371648657,0.07132439827,3.030442105
9.5534039,0.06423818963,3.030442105
9.734933755,0.05269286203,3.030442105
9.898177469,0.03955280865,3.030442105
10.03169907,0.02722045311,3.030442105
10.13268998,0.01701262067,3.030442105
10.20464457,0.009275362248,3.030442105
10.25375624,0.003761729166,3.030442105
10.29862238,0.0,3.232471579
10.27365143,-0.002886135352,3.232471579
10.23597117,-0.007116395068,3.232471579
10.180765,-0.01305270097,3.232471579
10.1032811,-0.02088452107,3.232471579
10.00083847,-0.03034635251,3.232471579
9.875591963,-0.04042787909,3.232471579
9.73631566,-0.04928587409,3.232471579
9.596866431,-0.05472267093,3.232471579
9.471223342,-0.0552335141,3.232471579
9.368452173,-0.05079627392,3.232471579
9.291028088,-0.04255127336,3.232471579
9.23659722,-0.03173210356,3.232471579
9.201177257,-0.01845709684,3.232471579
9.185805009,0.0,3.232471579
9.201177257,0.01845709684,3.232471579
9.23659722,0.03173210356,3.232471579
9.291028088,0.04255127336,3.232471579
9.368452173,0.05079627392,3.232471579
9.471223342,0.0552335141,3.232471579
9.596866431,0.05472267093,3.232471579
9.73631566,0.04928587409,3.232471579
9.875591963,0.04042787909,3.232471579
10.00083847,0.03034635251,3.232471579
10.1032811,0.02088452107,3.232471579
10.180765,0.01305270097,3.232471579
10.23597117,0.007116395068,3.232471579
10.27365143,0.002886135352,3.232471579
10.3109419,0.0,3.434501053
10.29354663,-0.002010541538,3.434501053
10.26729778,-0.004957427889,3.434501053
10.22884002,-0.009092781276,3.434501053
10.17486313,-0.01454858902,3.434501053
10.10349948,-0.02113989637,3.434501053
10.01625017,-0.02816289615,3.434501053
9.919227419,-0.03433355855,3.434501053
9.822084204,-0.0381209436,3.434501053
9.734558632,-0.03847680751,3.434501053
9.662966111,-0.03538573429,3.434501053
9.609030894,-0.02964209649,3.434501053
9.571113226,-0.02210523919,3.434501053
9.546438947,-0.01285759514,3.434501053
9.535730322,0.0,3.434501053
9.546438947,0.01285759514,3.434501053
9.571113226,0.02210523919,3.434501053
9.609030894,0.02964209649,3.434501053
9.662966111,0.03538573429,3.434501053
9.734558632,0.03847680751,3.434501053
9.822084204,0.0381209436,3.434501053
9.919227419,0.03433355855,3.434501053
10.01625017,0.02816289615,3.434501053
10.10349948,0.02113989637,3.434501053
10.17486313,0.01454858902,3.434501053
10.22884002,0.009092781276,3.434501053
10.26729778,0.004957427889,3.434501053
10.29354663,0.002010541538,3.434501053
10.32326142,0.0,3.636530526
10.31344182,-0.001134947724,3.636530526
10.29862438,-0.002798460709,3.636530526
10.27691503,-0.005132861579,3.636530526
10.24644516,-0.008212656981,3.636530526
10.20616048,-0.01193344023,3.636530526
10.15690838,-0.01589791322,3.636530526
10.10213918,-0.01938124301,3.636530526
10.04730198,-0.02151921627,3.636530526
9.997893922,-0.02172010092,3.636530526
9.95748005,-0.01997519465,3.636530526
9.927033699,-0.01673291961,3.636530526
9.905629232,-0.01247837482,3.636530526
9.891700638,-0.007258093434,3.636530526
9.885655635,0.0,3.636530526
9.891700638,0.007258093434,3.636530526
9.905629232,0.01247837482,3.636530526
9.927033699,0.01673291961,3.636530526
9.95748005,0.01997519465,3.636530526
9.997893922,0.02172010092,3.636530526
10.04730198,0.02151921627,3.636530526
10.10213918,0.01938124301,3.636530526
10.15690838,0.01589791322,3.636530526
10.20616048,0.01193344023,3.636530526
10.24644516,0.008212656981,3.636530526
10.27691503,0.005132861579,3.636530526
10.29862438,0.002798460709,3.636530526
10.31344182,0.001134947724,3.636530526
10.33558095,0.0,3.83856
10.33333701,-0.0002593539096,3.83856
10.32995099,-0.0006394935297,3.83856
10.32499005,-0.001172941881,3.83856
10.31802719,-0.001876724938,3.83856
10.30882149,-0.002726984083,3.83856
10.29756659,-0.003632930276,3.83856
10.28505094,-0.004428927467,3.83856
10.27251975,-0.004917488933,3.83856
10.26122921,-0.004963394324,3.83856
10.25199399,-0.004564655024,3.83856
10.2450365,-0.003823742742,3.83856
10.24014524,-0.002851510451,3.83856
10.23696233,-0.00165859173,3.83856
10.23558095,0.0,3.83856
10.23696233,0.00165859173,3.83856
10.24014524,0.002851510451,3.83856
10.2450365,0.003823742742,3.83856
10.25199399,0.004564655024,3.83856
10.26122921,0.004963394324,3.83856
10.27251975,0.004917488933,3.83856
10.28505094,0.004428927467,3.83856
10.29756659,0.003632930276,3.83856
10.30882149,0.002726984083,3.83856
10.31802719,0.001876724938,3.83856
10.32499005,0.001172941881,3.83856
10.32995099,0.0006394935297,3.83856
10.33333701,0.0002593539096,3.83856
10.33333701,-0.0001296769548,3.83856
10.32995099,-0.0003197467648,3.83856
10.32499005,-0.0005864709405,3.83856
10.31802719,-0.000938362469,3.83856
10.30882149,-0.001363492042,3.83856
10.29756659,-0.001816465138,3.83856
10.28505094,-0.002214463734,3.83856
10.27251975,-0.002458744466,3.83856
10.26122921,-0.002481697162,3.83856
10.25199399,-0.002282327512,3.83856
10.2450365,-0.001911871371,3.83856
10.24014524,-0.001425755226,3.83856
10.23696233,-0.0008292958649,3.83856
10.23696233,0.0008292958649,3.83856
10.24014524,0.001425755226,3.83856
10.2450365,0.001911871371,3.83856
10.25199399,0.002282327512,3.83856
10.26122921,0.002481697162,3.83856
10.27251975,0.002458744466,3.83856
10.28505094,0.002214463734,3.83856
10.29756659,0.001816465138,3.83856
10.30882149,0.001363492042,3.83856
10.31802719,0.000938362469,3.83856
10.32499005,0.0005864709405,3.83856
10.32995099,0.0003197467648,3.83856
10.33333701,0.0001296769548,3.83856
10.33333701,1.906615633e-17,3.83856
10.32995099,2.399838323e-17,3.83856
10.32499005,8.293062752e-18,3.83856
10.31802719,9.195374881e-19,3.83856
10.30882149,2.725503729e-18,3.83856
10.29756659,1.134684656e-18,3.83856
10.28505094,8.67361738e-19,3.83856
10.27251975,2.522505131e-21,3.83856
10.26122921,-4.350568755e-19,3.83856
10.25199399,-2.765015903e-18,3.83856
10.2450365,-1.835205048e-18,3.83856
10.24014524,-4.991423235e-18,3.83856
10.23696233,-1.022416158e-17,3.83856
10.04655,0.0,-0.0
9.992120767,2.603978459e-32,4.252619548e-16
9.992120767,-1.921344584e-19,-0.003137793828
9.904646675,-4.89823119e-19,-0.007999418597
9.904646675,2.536678631e-32,4.142710588e-16
9.770200808,-9.219301589e-19,-0.01505626209
9.770200808,3.13918123e-33,5.126672004e-17
9.577111324,-1.490608721e-18,-0.02434348781
9.577111324,2.738601368e-33,4.472475443e-17
9.325184618,-2.136256416e-18,-0.03488771486
9.325184618,1.700547073e-33,2.777204127e-17
9.034661303,-2.715393641e-18,-0.0443457435
9.034661303,8.497694209e-34,1.387778781e-17
8.743724074,1.544367848e-34,2.522144097e-18
8.743724074,-3.03955917e-18,-0.04963976833
8.490946215,-1.498854113e-33,-2.447814528e-17
8.490946215,-2.989593518e-18,-0.04882376731
8.297438396,-6.771883089e-34,-1.105932436e-17
8.297438396,-2.592788878e-18,-0.04234345576
8.163906185,-5.74212558e-33,-9.377602724e-17
8.163906185,-1.96022894e-18,-0.03201296801
8.080135478,-9.062191682e-33,-1.479968214e-16
8.080135478,-1.152010265e-18,-0.01881375538
8.044,0.0,-0.0
8.080135478,1.152010265e-18,0.01881375538
8.163906185,1.96022894e-18,0.03201296801
8.297438396,2.592788878e-18,0.04234345576
8.490946215,2.989593518e-18,0.04882376731
8.743724074,3.03955917e-18,0.04963976833
9.034661303,2.715393641e-18,0.0443457435
9.325184618,2.136256416e-18,0.03488771486
9.577111324,1.490608721e-18,0.02434348781
9.770200808,9.219301589e-19,0.01505626209
9.904646675,4.89823119e-19,0.007999418597
9.992120767,1.921344584e-19,0.003137793828
9.992120767,-3.842689168e-19,-0.006275587655
9.904646675,-9.79646238e-19,-0.01599883719
9.770200808,-1.843860318e-18,-0.03011252418
9.577111324,-2.981217442e-18,-0.04868697562
9.325184618,-4.272512833e-18,-0.06977542971
9.034661303,-5.430787283e-18,-0.08869148699
8.743724074,-6.07911834e-18,-0.09927953667
8.490946215,-5.979187036e-18,-0.09764753462
8.297438396,-5.185577756e-18,-0.08468691151
8.163906185,-3.92045788e-18,-0.06402593601
8.080135478,-2.30402053e-18,-0.03762751076
8.080135478,2.30402053e-18,0.03762751076
8.163906185,3.92045788e-18,0.06402593601
8.297438396,5.185577756e-18,0.08468691151
8.490946215,5.979187036e-18,0.09764753462
8.743724074,6.07911834e-18,0.09927953667
9.034661303,5.430787283e-18,0.08869148699
9.325184618,4.272512833e-18,0.06977542971
9.577111324,2.981217442e-18,0.04868697562
9.770200808,1.843860318e-18,0.03011252418
9.904646675,9.79646238e-19,0.01599883719
9.992120767,3.842689168e-19,0.006275587655
10.03550177,0.3958333333,-0.005338467077
10.0818032,0.3958333333,-2.423780123e-17
9.961090006,0.3958333333,-0.01360976379
9.846720664,0.3958333333,-0.02561588297
9.682464834,0.3958333333,-0.04141664983
9.468157824,0.3958333333,-0.05935600851
9.221017758,0.3958333333,-0.07544736993
8.973525586,0.3958333333,-0.08445432795
8.758494524,0.3958333333,-0.08306602941
8.593882829,0.3958333333,-0.07204078945
8.480290708,0.3958333333,-0.05446507487
8.409029308,0.3958333333,-0.03200867208
8.378289867,0.3958333333,-2.423780123e-17
8.409029308,0.3958333333,0.03200867208
8.480290708,0.3958333333,0.05446507487
8.593882829,0.3958333333,0.07204078945
8.758494524,0.3958333333,0.08306602941
8.973525586,0.3958333333,0.08445432795
9.221017758,0.3958333333,0.07544736993
9.468157824,0.3958333333,0.05935600851
9.682464834,0.3958333333,0.04141664983
9.846720664,0.3958333333,0.02561588297
9.961090006,0.3958333333,0.01360976379
10.03550177,0.3958333333,0.005338467077
10.07888278,0.7916666667,-0.004401346499
10.1170564,0.7916666667,-4.847560247e-17
10.01753334,0.7916666667,-0.01122069039
9.92324052,0.7916666667,-0.02111924176
9.787818345,0.7916666667,-0.03414632405
9.611131031,0.7916666667,-0.04893658732
9.407374213,0.7916666667,-0.06220325286
9.203327098,0.7916666667,-0.06962911924
9.026042833,0.7916666667,-0.0684845242
8.890327262,0.7916666667,-0.05939466739
8.796675231,0.7916666667,-0.04490421372
8.737923138,0.7916666667,-0.0263898334
8.712579733,0.7916666667,-4.847560247e-17
8.737923138,0.7916666667,0.0263898334
8.796675231,0.7916666667,0.04490421372
8.890327262,0.7916666667,0.05939466739
9.026042833,0.7916666667,0.0684845242
9.203327098,0.7916666667,0.06962911924
9.407374213,0.7916666667,0.06220325286
9.611131031,0.7916666667,0.04893658732
9.787818345,0.7916666667,0.03414632405
9.92324052,0.7916666667,0.02111924176
10.01753334,0.7916666667,0.01122069039
10.07888278,0.7916666667,0.004401346499
10.12226378,1.1875,-0.003464225921
10.1523096,1.1875,-7.27134037e-17
10.07397667,1.1875,-0.008831616983
9.999760375,1.1875,-0.01662260055
9.893171856,1.1875,-0.02687599827
9.754104238,1.1875,-0.03851716612
9.593730668,1.1875,-0.04895913579
9.43312861,1.1875,-0.05480391052
9.293591142,1.1875,-0.05390301899
9.186771695,1.1875,-0.04674854534
9.113059754,1.1875,-0.03534335258
9.066816968,1.1875,-0.02077099473
9.0468696,1.1875,-7.27134037e-17
9.066816968,1.1875,0.02077099473
9.113059754,1.1875,0.03534335258
9.186771695,1.1875,0.04674854534
9.293591142,1.1875,0.05390301899
9.43312861,1.1875,0.05480391052
