x,y,z
0.04644234363,-0.9844522778,0.4788422175
0.0463890691,-0.8436952538,0.5924137748
0.04635039755,-0.6831197949,0.6674545292
0.04633547465,-0.5119246,0.6945583625
0.04635039755,-0.3407294051,0.6674545292
0.0463890691,-0.1801539462,0.5924137748
0.04644234363,-0.03939692221,0.4788422175
0.04649986271,0.07236755942,0.3361087934
0.046546417,0.1460637578,0.1734337118
0.04656558445,0.1726405238,1.596096037e-16
0.046546417,0.1460637578,-0.1734337118
0.04649986271,0.07236755942,-0.3361087934
0.04644234363,-0.03939692221,-0.4788422175
0.0463890691,-0.1801539462,-0.5924137748
0.04635039755,-0.3407294051,-0.6674545292
0.5205964395,-0.5119246,-1.262306269
0.5206760282,-0.8195165292,-1.214119244
0.5208822765,-1.103613906,-1.080175521
0.5211664073,-1.349467021,-0.8764011268
0.5214731758,-1.54245732,-0.618523784
0.5217214654,-1.668490869,-0.3214780053
0.5218236917,-1.713604891,1.110223025e-16
0.5217214654,-1.668490869,0.3214780053
0.5214731758,-1.54245732,0.618523784
0.5211664073,-1.349467021,0.8764011268
0.5208822765,-1.103613906,1.080175521
0.5206760282,-0.8195165292,1.214119244
0.5205964395,-0.5119246,1.262306269
0.5206760282,-0.2043326708,1.214119244
0.5208822765,0.07976470607,1.080175521
0.5211664073,0.325617821,0.8764011268
0.5214731758,0.5186081195,0.618523784
0.5217214654,0.6446416688,0.3214780053
0.5218236917,0.6897556914,1.833826817e-16
0.5217214654,0.6446416688,-0.3214780053
0.5214731758,0.5186081195,-0.618523784
0.5211664073,0.325617821,-0.8764011268
0.5208822765,0.07976470607,-1.080175521
0.5206760282,-0.2043326708,-1.214119244
1.454025064,-0.5119246,-1.631990144
1.45415937,-0.9045603967,-1.571641233
1.454507414,-1.260556133,-1.402807965
1.454986884,-1.563931438,-1.143810531
1.455504556,-1.798927268,-0.8126344895
1.455923545,-1.950669875,-0.4259268536
1.456096052,-2.004506838,5.204170428e-17
1.455923545,-1.950669875,0.4259268536
1.455504556,-1.798927268,0.8126344895
1.454986884,-1.563931438,1.143810531
1.454507414,-1.260556133,1.402807965
1.45415937,-0.9045603967,1.571641233
1.454025064,-0.5119246,1.631990144
1.45415937,-0.1192888033,1.571641233
1.454507414,0.2367069328,1.402807965
1.454986884,0.5400822384,1.143810531
1.455504556,0.7750780682,0.8126344895
1.455923545,0.9268206754,0.4259268536
1.456096052,0.9806576383,7.689690939e-17
1.455923545,0.9268206754,-0.4259268536
1.455504556,0.7750780682,-0.8126344895
1.454986884,0.5400822384,-1.143810531
1.454507414,0.2367069328,-1.402807965
1.45415937,-0.1192888033,-1.571641233
2.24901066,-0.5119246,-1.792963916
2.24901066,-0.9415995959,-1.728871477
2.24901066,-1.327827595,-1.548024469
2.24901066,-1.655145096,-1.267568354
2.24901066,-1.908088597,-0.9046485959
2.24901066,-2.071194599,-0.476410657
2.24901066,-2.1289996,-0.0
2.24901066,-2.071194599,0.476410657
2.24901066,-1.908088597,0.9046485959
2.24901066,-1.655145096,1.267568354
2.24901066,-1.327827595,1.548024469
2.24901066,-0.9415995959,1.728871477
2.24901066,-0.5119246,1.792963916
2.24901066,-0.08224960409,1.728871477
2.24901066,0.3039783948,1.548024469
2.24901066,0.6312958956,1.267568354
2.24901066,0.8842393974,0.9046485959
2.24901066,1.047345399,0.476410657
2.24901066,1.1051504,-0.0
2.24901066,1.047345399,-0.476410657
2.24901066,0.8842393974,-0.9046485959
2.24901066,0.6312958956,-1.267568354
2.24901066,0.3039783948,-1.548024469
2.24901066,-0.08224960409,-1.728871477
2.739818484,-0.4929579294,-1.861995729
2.739476234,-0.9496601523,-1.797683657
2.738956238,-1.361570782,-1.612197956
2.738322512,-1.711931093,-1.322124226
2.737658716,-1.983846899,-0.9444098893
2.737127071,-2.159882156,-0.4974496418
2.736909442,-2.222465354,-5.653913551e-18
2.737127071,-2.159882156,0.4974496418
2.737658716,-1.983846899,0.9444098893
2.738322512,-1.711931093,1.322124226
2.738956238,-1.361570782,1.612197956
2.739476234,-0.9496601523,1.797683657
2.739818484,-0.4929579294,1.861995729
2.739943253,-0.03730625853,1.79421068
2.739907926,0.3719509062,1.606053458
2.739794171,0.7188021282,1.31491112
2.739674342,0.9871245821,0.9382653912
2.739583536,1.160349886,0.4939766646
2.739547538,1.22179827,7.712341408e-18
2.739583536,1.160349886,-0.4939766646
2.739674342,0.9871245821,-0.9382653912
2.739794171,0.7188021282,-1.31491112
2.739907926,0.3719509062,-1.606053458
2.739943253,-0.03730625853,-1.79421068
3.230222016,-0.4577341125,-1.905336411
3.229820497,-0.9405757645,-1.84004681
3.229513832,-1.375899121,-1.649249003
3.229256624,-1.745317677,-1.351369148
3.229019764,-2.030640331,-0.9648519597
3.228839281,-2.21445759,-0.5082164024
3.228767495,-2.279555364,-1.13078271e-17
3.228839281,-2.21445759,0.5082164024
3.229019764,-2.030640331,0.9648519597
3.229256624,-1.745317677,1.351369148
3.229513832,-1.375899121,1.649249003
3.229820497,-0.9405757645,1.84004681
3.230222016,-0.4577341125,1.905336411
3.230754535,0.02300643526,1.833100856
3.231417209,0.4530228621,1.636960007
3.232199942,0.8154232389,1.336942935
3.233051016,1.093559189,0.9525629635
3.233752212,1.271756544,0.5012704481
3.234043687,1.334584688,-1.101763058e-17
3.233752212,1.271756544,-0.5012704481
3.233051016,1.093559189,-0.9525629635
3.232199942,0.8154232389,-1.336942935
3.231417209,0.4530228621,-1.636960007
3.230754535,0.02300643526,-1.833100856
3.724580565,-0.4387674419,-1.950241452
3.724580565,-0.9409616767,-1.880526869
3.724580565,-1.392376062,-1.683816089
3.724580565,-1.774937215,-1.378758561
3.724580565,-2.070571752,-0.9840037359
3.724580565,-2.261206289,-0.5182010655
3.724580565,-2.328767442,-0.0
3.724580565,-2.261206289,0.5182010655
3.724580565,-2.070571752,0.9840037359
3.724580565,-1.774937215,1.378758561
3.724580565,-1.392376062,1.683816089
3.724580565,-0.9409616767,1.880526869
3.724580565,-0.4387674419,1.950241452
3.724580565,0.06342679296,1.880526869
3.724580565,0.5148411787,1.683816089
3.724580565,0.8974023317,1.378758561
3.724580565,1.193036868,0.9840037359
3.724580565,1.383671405,0.5182010655
3.724580565,1.451232558,-0.0
3.724580565,1.383671405,-0.5182010655
3.724580565,1.193036868,-0.9840037359
3.724580565,0.8974023317,-1.378758561
3.724580565,0.5148411787,-1.683816089
3.724580565,0.06342679296,-1.880526869
4.444016369,-0.4008492679,-2.002728304
4.444270015,-0.9306499568,-1.930260044
4.44437332,-1.406710889,-1.728155837
4.444347156,-1.810280486,-1.415097322
4.444224089,-2.122497444,-1.009876794
4.444083475,-2.324061563,-0.5317291644
4.444016369,-2.39556292,1.278555451e-17
4.444083475,-2.324061563,0.5317291644
4.444224089,-2.122497444,1.009876794
4.444347156,-1.810280486,1.415097322
4.44437332,-1.406710889,1.728155837
4.444270015,-0.9306499568,1.930260044
4.444016369,-0.4008492679,2.002728304
4.443622887,0.1297561814,1.933000776
4.443225553,0.6078868273,1.733004824
4.442991725,1.01427424,1.420789611
4.44302767,1.329488876,1.014725781
4.4431953,1.533456738,0.5344698964
4.443295438,1.605942716,1.211939364e-17
4.4431953,1.533456738,-0.5344698964
4.44302767,1.329488876,-1.014725781
4.442991725,1.01427424,-1.420789611
4.443225553,0.6078868273,-1.733004824
4.443622887,0.1297561814,-1.933000776
5.289133788,-0.3304298019,-2.042823293
5.289180292,-0.8968129565,-1.971435855
5.28929357,-1.406809938,-1.765631205
5.289360551,-1.838971287,-1.445636891
5.289304491,-2.172154363,-1.031577076
5.289193944,-2.386443805,-0.5431623715
5.289133788,-2.462231072,8.609368362e-18
5.289193944,-2.386443805,0.5431623715
5.289304491,-2.172154363,1.031577076
5.289360551,-1.838971287,1.445636891
5.28929357,-1.406809938,1.765631205
5.289180292,-0.8968129565,1.971435855
5.289133788,-0.3304298019,2.042823293
5.289287093,0.234411217,1.966498388
5.2898531,0.7405872321,1.756895685
5.291064665,1.167856943,1.435382151
5.292958532,1.496255318,1.022841557
5.29478699,1.706922389,0.538224904
5.295606215,1.781274457,-5.508815291e-18
5.29478699,1.706922389,-0.538224904
5.292958532,1.496255318,-1.022841557
5.291064665,1.167856943,-1.435382151
5.2898531,0.7405872321,-1.756895685
5.289287093,0.234411217,-1.966498388
5.783515318,-0.2925116279,-2.058795223
5.783515318,-0.8770763457,-1.985200207
5.783515318,-1.402532244,-1.777540168
5.783515318,-1.847841523,-1.455502617
5.783515318,-2.191966381,-1.038775065
5.783515318,-2.413869016,-0.5470450219
5.783515318,-2.492511628,-0.0
5.783515318,-2.413869016,0.5470450219
5.783515318,-2.191966381,1.038775065
5.783515318,-1.847841523,1.455502617
5.783515318,-1.402532244,1.777540168
5.783515318,-0.8770763457,1.985200207
5.783515318,-0.2925116279,2.058795223
5.783515318,0.2920530899,1.985200207
5.783515318,0.8175089886,1.777540168
5.783515318,1.262818267,1.455502617
5.783515318,1.606943125,1.038775065
5.783515318,1.82884576,0.5470450219
5.783515318,1.907488372,-4.108650548e-33
5.783515318,1.82884576,-0.5470450219
5.783515318,1.606943125,-1.038775065
5.783515318,1.262818267,-1.455502617
5.783515318,0.8175089886,-1.777540168
5.783515318,0.2920530899,-1.985200207
6.224829627,-0.163514,-2.068120627
6.224829627,-0.7852782907,-1.99419226
6.224829627,-1.344172292,-1.785591616
6.224829627,-1.817819434,-1.462095381
6.224829627,-2.183843146,-1.043480243
6.224829627,-2.419866858,-0.5495228867
6.224829627,-2.503514,-0.0
6.224829627,-2.419866858,0.5495228867
6.224829627,-2.183843146,1.043480243
6.224829627,-1.817819434,1.462095381
6.224829627,-1.344172292,1.785591616
6.224829627,-0.7852782907,1.99419226
6.224829627,-0.163514,2.068120627
6.224829627,0.4582502907,1.99419226
6.224829627,1.017144292,1.785591616
6.224829627,1.490791434,1.462095381
6.224829627,1.856815146,1.043480243
6.224829627,2.092838858,0.5495228867
6.224829627,2.176486,-0.0
6.224829627,2.092838858,-0.5495228867
6.224829627,1.856815146,-1.043480243
6.224829627,1.490791434,-1.462095381
6.224829627,1.017144292,-1.785591616
6.224829627,0.4582502907,-1.99419226
6.666143936,0.0,-2.075
6.666143936,-0.6722494255,-2.000825718
6.666143936,-1.276523709,-1.791531187
6.666143936,-1.788629379,-1.466958878
6.666143936,-2.184372966,-1.046951263
6.666143936,-2.439560996,-0.5513508134
6.666143936,-2.53,-0.0
6.666143936,-2.439560996,0.5513508134
6.666143936,-2.184372966,1.046951263
6.666143936,-1.788629379,1.466958878
6.666143936,-1.276523709,1.791531187
6.666143936,-0.6722494255,2.000825718
6.666143936,0.0,2.075
6.666143936,0.6722494255,2.000825718
6.666143936,1.276523709,1.791531187
6.666143936,1.788629379,1.466958878
6.666143936,2.184372966,1.046951263
6.666143936,2.439560996,0.5513508134
6.666143936,2.53,-0.0
6.666143936,2.439560996,-0.5513508134
6.666143936,2.184372966,-1.046951263
6.666143936,1.788629379,-1.466958878
6.666143936,1.276523709,-1.791531187
6.666143936,0.6722494255,-2.000825718
7.548772555,0.2925116279,-2.0884962
7.548772555,-0.4555421623,-2.013839474
7.548772555,-1.12795578,-1.803183651
7.548772555,-1.697807643,-1.476500262
7.548772555,-2.138176171,-1.053760836
7.548772555,-2.422139781,-0.5549369053
7.548772555,-2.522776891,-0.0
7.548772555,-2.422139781,0.5549369053
7.548772555,-2.138176171,1.053760836
7.548772555,-1.697807643,1.476500262
7.548772555,-1.12795578,1.803183651
7.548772555,-0.4555421623,2.013839474
7.548772555,0.2925116279,2.0884962
7.548772555,1.040565418,2.013839474
7.548772555,1.712979036,1.803183651
7.548772555,2.282830899,1.476500262
7.548772555,2.723199427,1.053760836
7.548772555,3.007163036,0.5549369053
7.548772555,3.107800147,-0.0
7.548772555,3.007163036,-0.5549369053
7.548772555,2.723199427,-1.053760836
7.548772555,2.282830899,-1.476500262
7.548772555,1.712979036,-1.803183651
7.548772555,1.040565418,-2.013839474
8.12162119,0.3145041688,-2.086272839
8.121698796,-0.4373093314,-2.007752975
8.121608222,-1.111296303,-1.796182546
8.121497672,-1.682307158,-1.470367877
8.12147904,-2.124689001,-1.049281157
8.121518959,-2.410775699,-0.5525580299
8.12154775,-2.512397808,-7.388637027e-19
8.121518959,-2.410775699,0.5525580299
8.12147904,-2.124689001,1.049281157
8.121497672,-1.682307158,1.470367877
8.121608222,-1.111296303,1.796182546
8.121698796,-0.4373093314,2.007752975
8.12162119,0.3145041688,2.086272839
8.121224685,1.069670857,2.018780455
8.120348522,1.752100622,1.815692702
8.118829431,2.334218722,1.493271103
8.116691114,2.78789393,1.068791313
8.11470517,3.082769071,0.5635855093
8.113830173,3.187930487,2.172539031e-17
8.11470517,3.082769071,-0.5635855093
8.116691114,2.78789393,-1.068791313
8.118829431,2.334218722,-1.493271103
8.120348522,1.752100622,-1.815692702
8.121224685,1.069670857,-2.018780455
8.940129732,0.3553474591,-2.078697738
8.940153236,-0.4030220545,-2.001940124
8.94007429,-1.083584241,-1.79074981
8.939985356,-1.659703257,-1.465161877
8.939956659,-2.104672129,-1.045123879
8.939969477,-2.391499372,-0.5502332752
8.939982852,-2.493122367,2.184466599e-18
8.939969477,-2.391499372,0.5502332752
8.939956659,-2.104672129,1.045123879
8.939985356,-1.659703257,1.465161877
8.94007429,-1.083584241,1.79074981
8.940153236,-0.4030220545,2.001940124
8.940129732,0.3553474591,2.078697738
8.93991618,1.115393567,2.007453864
8.93944444,1.80017715,1.800504888
8.938651235,2.381849788,1.47661349
8.937562696,2.832465343,1.054878957
8.936562583,3.123686807,0.5557470149
8.936124064,3.227079456,1.039788886e-17
8.936562583,3.123686807,-0.5557470149
8.937562696,2.832465343,-1.054878957
8.938651235,2.381849788,-1.47661349
8.93944444,1.80017715,-1.800504888
8.93991618,1.115393567,-2.007453864
9.626860188,0.37734,-2.064413363
9.626860188,-0.3826162626,-1.990617518
9.626860188,-1.065728823,-1.782390806
9.626860188,-1.644647743,-1.459474463
9.626860188,-2.092023085,-1.041609725
9.626860188,-2.380504911,-0.548537825
9.626860188,-2.482743284,1.027162637e-33
9.626860188,-2.380504911,0.548537825
9.626860188,-2.092023085,1.041609725
9.626860188,-1.644647743,1.459474463
9.626860188,-1.065728823,1.782390806
9.626860188,-0.3826162626,1.990617518
9.626860188,0.37734,2.064413363
9.626860188,1.137296263,1.990617518
9.626860188,1.820408823,1.782390806
9.626860188,2.399327743,1.459474463
9.626860188,2.846703085,1.041609725
9.626860188,3.135184911,0.548537825
9.626860188,3.237423284,-0.0
9.626860188,3.135184911,-0.548537825
9.626860188,2.846703085,-1.041609725
9.626860188,2.399327743,-1.459474463
9.626860188,1.820408823,-1.782390806
9.626860188,1.137296263,-1.990617518
10.36563559,0.352184,-1.993404332
10.36511253,-0.394926709,-1.917448593
10.36483028,-1.064358363,-1.713743019
10.36470239,-1.63064464,-1.401355245
10.36465219,-2.068104726,-0.9992501233
10.36464231,-2.350199843,-0.5259813895
10.36464514,-2.45017672,1.734723476e-18
10.36464231,-2.350199843,0.5259813895
10.36465219,-2.068104726,0.9992501233
10.36470239,-1.63064464,1.401355245
10.36483028,-1.064358363,1.713743019
10.36511253,-0.394926709,1.917448593
10.36563559,0.352184,1.993404332
10.36645077,1.102621421,1.928474413
10.36746884,1.780468627,1.733250241
10.36856542,2.357912422,1.424255027
10.36960142,2.806837317,1.018757345
10.37037894,3.097918671,0.5370072103
10.37068536,3.201529552,7.95980772e-18
10.37037894,3.097918671,-0.5370072103
10.36960142,2.806837317,-1.018757345
10.36856542,2.357912422,-1.424255027
10.36746884,1.780468627,-1.733250241
10.36645077,1.102621421,-1.928474413
11.10243009,0.327028,-1.895330414
11.10243009,-0.4022531952,-1.827578717
11.10243009,-1.057792427,-1.636406529
11.10243009,-1.613343717,-1.339938207
11.10243009,-2.042661087,-0.9562981069
11.10243009,-2.31949856,-0.5036105858
11.10243009,-2.417610157,-0.0
11.10243009,-2.31949856,0.5036105858
11.10243009,-2.042661087,0.9562981069
11.10243009,-1.613343717,1.339938207
11.10243009,-1.057792427,1.636406529
11.10243009,-0.4022531952,1.827578717
11.10243009,0.327028,1.895330414
11.10243009,1.056309195,1.827578717
11.10243009,1.711848427,1.636406529
11.10243009,2.267399717,1.339938207
11.10243009,2.696717087,0.9562981069
11.10243009,2.97355456,0.5036105858
11.10243009,3.071666157,-0.0
11.10243009,2.97355456,-0.5036105858
11.10243009,2.696717087,-0.9562981069
11.10243009,2.267399717,-1.339938207
11.10243009,1.711848427,-1.636406529
11.10243009,1.056309195,-1.827578717
11.59235094,0.280161137,-1.827975878
11.59261899,-0.4276302721,-1.766021231
11.5928909,-1.065459848,-1.585023937
11.59310773,-1.607736448,-1.300870307
11.59322675,-2.028595702,-0.929878705
11.59327006,-2.301080309,-0.490095721
11.59327598,-2.397959741,-2.377213652e-18
11.59327006,-2.301080309,0.490095721
11.59322675,-2.028595702,0.929878705
11.59310773,-1.607736448,1.300870307
11.5928909,-1.065459848,1.585023937
11.59261899,-0.4276302721,1.766021231
11.59235094,0.280161137,1.827975878
11.59214834,0.986306848,1.760509013
11.59208337,1.619946625,1.575271552
11.59223089,2.15661027,1.289421855
11.592611,2.571621514,0.9201263202
11.59302495,2.839479792,0.4845835035
11.59321926,2.934478471,2.349634532e-32
11.59302495,2.839479792,-0.4845835035
11.592611,2.571621514,-0.9201263202
11.59223089,2.15661027,-1.289421855
11.59208337,1.619946625,-1.575271552
11.59214834,0.986306848,-1.760509013
12.08191784,0.193122677,-1.748961143
12.08149346,-0.482919147,-1.683908269
12.08146819,-1.089580536,-1.507659794
12.08160716,-1.604227889,-1.235220574
12.08171719,-2.003660876,-0.8819359478
12.08177196,-2.262412252,-0.4645131757
12.0817868,-2.354448038,3.437322443e-18
12.08177196,-2.262412252,0.4645131757
12.08171719,-2.003660876,0.8819359478
12.08160716,-1.604227889,1.235220574
12.08146819,-1.089580536,1.507659794
12.08149346,-0.482919147,1.683908269
12.08191784,0.193122677,1.748961143
12.08293125,0.8717872597,1.692485294
12.0845439,1.485030034,1.522834529
12.08672108,2.008287063,1.253034394
12.08928433,2.416405913,0.8971106833
12.0914802,2.681880164,0.4730902001
12.09241153,2.776614896,1.32211567e-17
12.0914802,2.681880164,-0.4730902001
12.08928433,2.416405913,-0.8971106833
12.08672108,2.008287063,-1.253034394
12.0845439,1.485030034,-1.522834529
12.08293125,0.8717872597,-1.692485294
12.578,0.146255814,-1.680325414
12.578,-0.5064612276,-1.620259423
12.578,-1.093178163,-1.450773679
12.578,-1.590404468,-1.187936522
12.578,-1.97464962,-0.8478162962
12.578,-2.222423096,-0.4464813414
12.578,-2.31023437,-0.0
12.578,-2.222423096,0.4464813414
12.578,-1.97464962,0.8478162962
12.578,-1.590404468,1.187936522
12.578,-1.093178163,1.450773679
12.578,-0.5064612276,1.620259423
12.578,0.146255814,1.680325414
12.578,0.7989728555,1.620259423
12.578,1.385689791,1.450773679
12.578,1.882916096,1.187936522
12.578,2.267161248,0.8478162962
12.578,2.514934724,0.4464813414
12.578,2.602745998,-0.0
12.578,2.514934724,-0.4464813414
12.578,2.267161248,-0.8478162962
12.578,1.882916096,-1.187936522
12.578,1.385689791,-1.450773679
12.578,0.7989728555,-1.620259423
13.17711153,0.07041946598,-1.616754069
13.17780114,-0.5399745029,-1.564345824
13.17810083,-1.091091922,-1.404312724
13.17824778,-1.559330533,-1.152099144
13.17842468,-1.921337025,-0.8232672634
13.17859648,-2.154753875,-0.4338504809
13.17867364,-2.237472509,-3.083952846e-18
13.17859648,-2.154753875,0.4338504809
13.17842468,-1.921337025,0.8232672634
13.17824778,-1.559330533,1.152099144
13.17810083,-1.091091922,1.404312724
13.17780114,-0.5399745029,1.564345824
13.17711153,0.07041946598,1.616754069
13.17585147,0.6769760338,1.551726566
13.17406683,1.218431779,1.381986346
13.17186013,1.673960238,1.125889917
13.16944057,2.02304449,0.8009408851
13.16744417,2.24640579,0.4212312236
13.16661366,2.325074935,-1.652644587e-17
13.16744417,2.24640579,-0.4212312236
13.16944057,2.02304449,-0.8009408851
13.17186013,1.673960238,-1.125889917
13.17406683,1.218431779,-1.381986346
13.17585147,0.6769760338,-1.551726566
13.84806953,-0.07041946598,-1.551177811
13.84833194,-0.6137131102,-1.498042854
13.84860888,-1.103308323,-1.344603835
13.84896387,-1.519894082,-1.1038163
13.84941874,-1.843797032,-0.7891203131
13.84982854,-2.053894484,-0.4158939992
13.85000662,-2.128701418,3.083952846e-18
13.84982854,-2.053894484,0.4158939992
13.84941874,-1.843797032,0.7891203131
13.84896387,-1.519894082,1.1038163
13.84860888,-1.103308323,1.344603835
13.84833194,-0.6137131102,1.498042854
13.84806953,-0.07041946598,1.551177811
13.84777882,0.4720905915,1.495470606
13.84749982,0.9597150262,1.340052934
13.84729327,1.373712788,1.098473938
13.84720053,1.694990994,0.7845694121
13.84718553,1.903049424,0.4133217508
13.84719284,1.977036024,-6.61057835e-18
13.84718553,1.903049424,-0.4133217508
13.84720053,1.694990994,-0.7845694121
13.84729327,1.373712788,-1.098473938
13.84749982,0.9597150262,-1.340052934
13.84777882,0.4720905915,-1.495470606
14.40619767,-0.146255814,-1.50300382
14.40619767,-0.6488226791,-1.449276481
14.40619767,-1.100572016,-1.29767625
14.40619767,-1.483417031,-1.062575807
14.40619767,-1.77927093,-0.7583478306
14.40619767,-1.970046918,-0.3993650019
14.40619767,-2.037658202,-0.0
14.40619767,-1.970046918,0.3993650019
14.40619767,-1.77927093,0.7583478306
14.40619767,-1.483417031,1.062575807
14.40619767,-1.100572016,1.29767625
14.40619767,-0.6488226791,1.449276481
14.40619767,-0.146255814,1.50300382
14.40619767,0.3563110512,1.449276481
14.40619767,0.8080603884,1.29767625
14.40619767,1.190905403,1.062575807
14.40619767,1.486759302,0.7583478306
14.40619767,1.677535291,0.3993650019
14.40619767,1.745146574,-0.0
14.40619767,1.677535291,-0.3993650019
14.40619767,1.486759302,-0.7583478306
14.40619767,1.190905403,-1.062575807
14.40619767,0.8080603884,-1.29767625
14.40619767,0.3563110512,-1.449276481
14.8453001,-0.146255814,-1.465255343
14.84545462,-0.636425199,-1.413907534
14.84534202,-1.077343713,-1.26464361
14.84502892,-1.449868122,-1.033696753
14.84460019,-1.735477796,-0.7368153157
14.84421376,-1.918142518,-0.3878083304
14.8440458,-1.982454673,-7.709882115e-18
14.84421376,-1.918142518,0.3878083304
14.84460019,-1.735477796,0.7368153157
14.84502892,-1.449868122,1.033696753
14.84534202,-1.077343713,1.26464361
14.84545462,-0.636425199,1.413907534
14.8453001,-0.146255814,1.465255343
14.84482004,0.3421483453,1.408088716
14.84398885,0.7786160248,1.254348778
14.84278915,1.145271256,1.021611516
14.84130078,1.424894247,0.7265204837
14.83999261,1.60288991,0.3819895122
14.83943076,1.665319334,-1.101763058e-18
14.83999261,1.60288991,-0.3819895122
14.84130078,1.424894247,-0.7265204837
14.84278915,1.145271256,-1.021611516
14.84398885,0.7786160248,-1.254348778
14.84482004,0.3421483453,-1.408088716
15.28347785,-0.146255814,-1.42314124
15.28362212,-0.6225101519,-1.373572617
15.2836511,-1.051264155,-1.230085354
15.28358792,-1.414490619,-1.006991841
15.28346331,-1.694433936,-0.7184860342
15.28333825,-1.874424866,-0.3782881571
15.28328133,-1.938065764,-6.167905692e-18
15.28333825,-1.874424866,0.3782881571
15.28346331,-1.694433936,0.7184860342
15.28358792,-1.414490619,1.006991841
15.2836511,-1.051264155,1.230085354
15.28362212,-0.6225101519,1.373572617
15.28347785,-0.146255814,1.42314124
15.28319638,0.3287383001,1.369409741
15.28276065,0.7543107517,1.222720266
15.28215484,1.113333019,0.9983458685
15.28141218,1.38897572,0.7111209465
15.28076224,1.565606038,0.3741252814
15.28048367,1.627890295,1.101763058e-18
15.28076224,1.565606038,-0.3741252814
15.28141218,1.38897572,-0.7111209465
15.28215484,1.113333019,-0.9983458685
15.28276065,0.7543107517,-1.222720266
15.28319638,0.3287383001,-1.369409741
15.7225,-0.146255814,-1.384347122
15.7225,-0.6105244069,-1.334861361
15.7225,-1.027848038,-1.195229418
15.7225,-1.381518224,-0.9786893019
15.7225,-1.65482648,-0.6984790209
15.7225,-1.831064321,-0.367836584
15.7225,-1.893523265,-0.0
15.7225,-1.831064321,0.367836584
15.7225,-1.65482648,0.6984790209
15.7225,-1.381518224,0.9786893019
15.7225,-1.027848038,1.195229418
15.7225,-0.6105244069,1.334861361
15.7225,-0.146255814,1.384347122
15.7225,0.318012779,1.334861361
15.7225,0.7353364103,1.195229418
15.7225,1.089006596,0.9786893019
15.7225,1.362314852,0.6984790209
15.7225,1.538552693,0.367836584
15.7225,1.601011637,-0.0
15.7225,1.538552693,-0.367836584
15.7225,1.362314852,-0.6984790209
15.7225,1.089006596,-0.9786893019
15.7225,0.7353364103,-1.195229418
15.7225,0.318012779,-1.334861361
16.25210819,-0.123403343,-1.339555277
16.25217544,-0.5747719144,-1.291882897
16.25221009,-0.980605723,-1.156622487
16.25221612,-1.324416421,-0.9468641217
16.25219984,-1.58980562,-0.6756422456
16.25217689,-1.760734772,-0.3557687761
16.25216524,-1.821255287,1.203464411e-17
16.25217689,-1.760734772,0.3557687761
16.25219984,-1.58980562,0.6756422456
16.25221612,-1.324416421,0.9468641217
16.25221009,-0.980605723,1.156622487
16.25217544,-0.5747719144,1.291882897
16.25210819,-0.123403343,1.339555277
16.25200833,0.3276843063,1.290948837
16.25189165,0.7328060884,1.154969919
16.2517779,1.075669764,0.9449241511
16.25168493,1.340081697,0.673989678
16.25162301,1.510242652,0.3548347162
16.25160051,1.570452,1.394418871e-18
16.25162301,1.510242652,-0.3548347162
16.25168493,1.340081697,-0.673989678
16.2517779,1.075669764,-0.9449241511
16.25189165,0.7328060884,-1.154969919
16.25200833,0.3276843063,-1.290948837
17.06680465,-0.07312790698,-1.26564815
17.06713473,-0.50322315,-1.222746255
17.06741902,-0.8912361273,-1.096481273
17.06764521,-1.220731089,-0.8987873592
17.06780372,-1.475422833,-0.6417292761
17.06789587,-1.639628351,-0.3378942212
17.0679257,-1.697815182,2.688821388e-17
17.06789587,-1.639628351,0.3378942212
17.06780372,-1.475422833,0.6417292761
17.06764521,-1.220731089,0.8987873592
17.06741902,-0.8912361273,1.096481273
17.06713473,-0.50322315,1.222746255
17.06680465,-0.07312790698,1.26564815
17.06644511,0.355368586,1.217435129
17.06608867,0.7393315241,1.087084665
17.06577192,1.063444474,0.8877565582
17.06552742,1.312588807,0.6323326678
17.06537163,1.472437116,0.3325830948
17.06531694,1.528859797,7.436900643e-18
17.06537163,1.472437116,-0.3325830948
17.06552742,1.312588807,-0.6323326678
17.06577192,1.063444474,-0.8877565582
17.06608867,0.7393315241,-1.087084665
17.06644511,0.355368586,-1.217435129
17.99547378,-0.02285247093,-1.175540772
17.99590166,-0.427228874,-1.136818079
17.99629344,-0.7927214079,-1.020485357
17.99662669,-1.103585472,-0.8372503118
17.99688074,-1.344212328,-0.5980721949
17.99704192,-1.499536687,-0.3149164338
17.9970983,-1.554629123,2.82976767e-17
17.99704192,-1.499536687,0.3149164338
17.99688074,-1.344212328,0.5980721949
17.99662669,-1.103585472,0.8372503118
17.99629344,-0.7927214079,1.020485357
17.99590166,-0.427228874,1.136818079
17.99547378,-0.02285247093,1.175540772
17.99503434,0.379406729,1.12978545
17.99461635,0.7395362307,1.008043012
17.99425497,1.043274299,0.8226440809
17.9939812,1.276557305,0.5856298501
17.99380943,1.426114047,0.3078838041
17.9937499,1.478871427,9.760932094e-18
17.99380943,1.426114047,-0.3078838041
17.9939812,1.276557305,-0.5856298501
17.99425497,1.043274299,-0.8226440809
17.99461635,0.7395362307,-1.008043012
17.99503434,0.379406729,-1.12978545
18.867,0.0,-1.082148176
18.867,-0.3781398464,-1.043465013
18.867,-0.7180437216,-0.9343143163
18.867,-1.006102814,-0.7650442768
18.867,-1.228708313,-0.5460030843
18.867,-1.372251408,-0.2875389287
18.867,-1.423123286,8.217301096e-33
18.867,-1.372251408,0.2875389287
18.867,-1.228708313,0.5460030843
18.867,-1.006102814,0.7650442768
18.867,-0.7180437216,0.9343143163
18.867,-0.3781398464,1.043465013
18.867,0.0,1.082148176
18.867,0.3781398464,1.043465013
18.867,0.7180437216,0.9343143163
18.867,1.006102814,0.7650442768
18.867,1.228708313,0.5460030843
18.867,1.372251408,0.2875389287
18.867,1.423123286,-0.0
18.867,1.372251408,-0.2875389287
18.867,1.228708313,-0.5460030843
18.867,1.006102814,-0.7650442768
18.867,0.7180437216,-0.9343143163
18.867,0.3781398464,-1.043465013
20.03057266,0.03791817399,-0.9325536564
20.03048237,-0.3069318622,-0.8984505042
20.03048639,-0.6161923599,-0.8040824566
20.03056255,-0.8780886134,-0.6583233907
20.03068297,-1.080701984,-0.4699938929
20.03079676,-1.211538097,-0.2477013855
20.03084727,-1.257958648,-2.672759133e-17
20.03079676,-1.211538097,0.2477013855
20.03068297,-1.080701984,0.4699938929
20.03056255,-0.8780886134,0.6583233907
20.03048639,-0.6161923599,0.8040824566
20.03048237,-0.3069318622,0.8984505042
20.03057266,0.03791817399,0.9325536564
20.03076715,0.3833532927,0.900400977
20.03102666,0.6940990912,0.807533293
20.03129977,0.9579759433,0.6623743726
20.0315381,1.162640206,0.4734447294
20.03170542,1.295092165,0.2496518583
20.03176857,1.342168091,-7.574621026e-18
20.03170542,1.295092165,-0.2496518583
20.0315381,1.162640206,-0.4734447294
20.03129977,0.9579759433,-0.6623743726
20.03102666,0.6940990912,-0.807533293
20.03076715,0.3833532927,-0.900400977
21.19433091,0.10833764,-0.7708933552
21.19487115,-0.2063306613,-0.74754055
21.19555513,-0.4912433934,-0.6732375849
21.19629633,-0.7343744235,-0.5541539282
21.19699847,-0.9235979757,-0.3968326225
21.19752618,-1.046389701,-0.2093110082
21.19773434,-1.090125608,-1.027984282e-17
21.19752618,-1.046389701,0.2093110082
21.19699847,-0.9235979757,0.3968326225
21.19629633,-0.7343744235,0.5541539282
21.19555513,-0.4912433934,0.6732375849
21.19487115,-0.2063306613,0.74754055
21.19433091,0.10833764,0.7708933552
21.19399781,0.420578662,0.7394925598
21.19384289,0.6993496578,0.6589988329
21.19381407,0.9343346468,0.5374388715
21.19385912,1.115183372,0.3825938705
21.19392509,1.231408474,0.201263018
21.19395888,1.272488316,1.377203823e-18
21.19392509,1.231408474,-0.201263018
21.19385912,1.115183372,-0.3825938705
21.19381407,0.9343346468,-0.5374388715
21.19384289,0.6993496578,-0.6589988329
21.19399781,0.420578662,-0.7394925598
22.0115,0.146255814,-0.6649313809
22.0115,-0.1451257713,-0.641162317
22.0115,-0.4070440296,-0.5740941235
22.0115,-0.6290124783,-0.4700852977
22.0115,-0.8005446345,-0.335494337
22.0115,-0.9111540156,-0.1766797386
22.0115,-0.9503541388,-0.0
22.0115,-0.9111540156,0.1766797386
22.0115,-0.8005446345,0.335494337
22.0115,-0.6290124783,0.4700852977
22.0115,-0.4070440296,0.5740941235
22.0115,-0.1451257713,0.641162317
22.0115,0.146255814,0.6649313809
22.0115,0.4376373992,0.641162317
22.0115,0.6995556575,0.5740941235
22.0115,0.9215241062,0.4700852977
22.0115,1.093056262,0.335494337
22.0115,1.203665644,0.1766797386
22.0115,1.242865767,-0.0
22.0115,1.203665644,-0.1766797386
22.0115,1.093056262,-0.335494337
22.0115,0.9215241062,-0.4700852977
22.0115,0.6995556575,-0.5740941235
22.0115,0.4376373992,-0.641162317
22.79851762,0.1828197674,-0.5474780914
22.79822721,-0.08405500481,-0.5251051991
22.79797812,-0.3226730387,-0.4684377639
22.79779212,-0.5243557546,-0.3825765308
22.79768337,-0.6802606137,-0.2725912266
22.79763562,-0.780889241,-0.1434275046
22.797625,-0.8165793022,-3.469446952e-18
22.79763562,-0.780889241,0.1434275046
22.79768337,-0.6802606137,0.2725912266
22.79779212,-0.5243557546,0.3825765308
22.79797812,-0.3226730387,0.4684377639
22.79822721,-0.08405500481,0.5251051991
22.79851762,0.1828197674,0.5474780914
22.79882638,0.4517391836,0.5318948054
22.7991256,0.6955355258,0.4804501443
22.7993862,0.9040967794,0.3966780208
22.79958287,1.067087683,0.2846036069
22.79970549,1.173279989,0.1502171109
22.79974777,1.211222201,9.063722659e-18
22.79970549,1.173279989,-0.1502171109
22.79958287,1.067087683,-0.2846036069
22.7993862,0.9040967794,-0.3966780208
22.7991256,0.6955355258,-0.4804501443
22.79882638,0.4517391836,-0.5318948054
23.58375,0.2193837209,-0.4155821131
23.58375,-0.02033781662,-0.4007264481
23.58375,-0.2358196822,-0.3588088272
23.58375,-0.4184345779,-0.2938033111
23.58375,-0.5595552057,-0.2096839606
23.58375,-0.6505542676,-0.1104248367
23.58375,-0.6828044655,-0.0
23.58375,-0.6505542676,0.1104248367
23.58375,-0.5595552057,0.2096839606
23.58375,-0.4184345779,0.2938033111
23.58375,-0.2358196822,0.3588088272
23.58375,-0.02033781662,0.4007264481
23.58375,0.2193837209,0.4155821131
23.58375,0.4591052585,0.4007264481
23.58375,0.6745871241,0.3588088272
23.58375,0.8572020198,0.2938033111
23.58375,0.9983226476,0.2096839606
23.58375,1.089321709,0.1104248367
23.58375,1.121571907,-0.0
23.58375,1.089321709,-0.1104248367
23.58375,0.9983226476,-0.2096839606
23.58375,0.8572020198,-0.2938033111
23.58375,0.6745871241,-0.3588088272
23.58375,0.4591052585,-0.4007264481
24.76327862,0.1550311628,-0.1725704688
24.76309454,0.01401618444,-0.1650177204
24.76283548,-0.1151771242,-0.1458561477
24.76253297,-0.2261733918,-0.1177126496
24.76222626,-0.3126947948,-0.08300451056
24.7619853,-0.3688536995,-0.04331055676
24.76188773,-0.3888600202,-8.67361738e-18
24.7619853,-0.3688536995,0.04331055676
24.76222626,-0.3126947948,0.08300451056
24.76253297,-0.2261733918,0.1177126496
24.76283548,-0.1151771242,0.1458561477
24.76309454,0.01401618444,0.1650177204
24.76327862,0.1550311628,0.1725704688
24.7633663,0.2965537182,0.1666984823
24.76337682,0.4270303402,0.1488298033
24.76333955,0.5397265305,0.1212034627
24.76328291,0.6279925645,0.08597816611
24.76323154,0.6855178127,0.04499131859
24.76320915,0.706076419,4.50384845e-17
24.76323154,0.6855178127,-0.04499131859
24.76328291,0.6279925645,-0.08597816611
24.76333955,0.5397265305,-0.1212034627
24.76337682,0.4270303402,-0.1488298033
24.7633663,0.2965537182,-0.1666984823
25.156,0.12578,-0.0
13.52755056,-2.2976184,-0.0
13.14657559,-2.148007933,-1.003837922
13.34654139,-2.149980319,-1.003837922
13.32115927,-2.295941013,-0.0
12.82534565,-2.14583,-1.003837922
12.98961163,-2.294220728,-0.0
12.33193271,-2.145046217,-1.003837922
12.48035982,-2.294107225,-0.0
11.62392317,-2.149622173,-1.003837922
11.74963744,-2.299583179,-0.0
10.70129254,-2.16478229,-1.003837922
10.79742137,-2.315757558,-0.0
9.638894663,-2.189455754,-1.003837922
9.700948374,-2.341113288,-0.0
8.60437932,-2.361781362,-0.0
8.57643575,-2.210504873,-1.003837922
7.652172977,-2.378186621,-0.0
7.653948767,-2.228703192,-1.003837922
6.921713363,-2.362989717,-0.0
6.946335004,-2.217133462,-1.003837922
6.416531348,-2.302194591,-0.0
6.456789876,-2.161574044,-1.003837922
6.105524023,-2.191925853,-0.0
6.154818745,-2.05798267,-1.003837922
5.982149814,-2.0341272,-0.0
6.0337021,-1.907129534,-1.003837922
6.098976666,-1.717219198,-1.003837922
6.048604488,-1.837583026,-0.0
6.364589842,-1.518287882,-1.003837922
6.322295871,-1.631650322,-0.0
6.840221792,-1.329408435,-1.003837922
6.813327243,-1.436972915,-0.0
7.55996905,-1.181530991,-1.003837922
7.556515219,-1.285606914,-0.0
8.516434155,-1.131670518,-1.003837922
8.543915001,-1.236169404,-0.0
9.616300139,-1.219886778,-1.003837922
9.679043662,-1.329549604,-0.0
10.80242786,-1.519241246,-0.0
10.70499028,-1.401304574,-1.003837922
11.7658453,-1.744336771,-0.0
11.63877807,-1.617391552,-1.003837922
12.49629332,-1.951228653,-0.0
12.34682432,-1.816375034,-1.003837922
13.00025802,-2.112330384,-0.0
12.83536264,-1.971474868,-1.003837922
13.32589431,-2.224677884,-0.0
13.15104424,-2.079696789,-1.003837922
12.97199192,-2.000074852,-2.007675844
13.16553222,-2.002342237,-2.007675844
12.66107966,-1.997439273,-2.007675844
12.1835056,-1.995985209,-2.007675844
11.49820889,-1.999661167,-2.007675844
10.60516371,-2.013807022,-2.007675844
9.576840952,-2.037798219,-2.007675844
8.54849218,-2.059228384,-2.007675844
7.655724557,-2.079219763,-2.007675844
6.970956645,-2.071277206,-2.007675844
6.497048403,-2.020953498,-2.007675844
6.204113468,-1.924039487,-2.007675844
6.085254385,-1.780131869,-2.007675844
6.149348845,-1.596855369,-2.007675844
6.406883813,-1.404925441,-2.007675844
6.867116342,-1.221843956,-2.007675844
7.563422882,-1.077455068,-2.007675844
8.488953309,-1.027171632,-2.007675844
9.553556617,-1.110223952,-2.007675844
10.6075527,-1.283367903,-2.007675844
11.51171084,-1.490446333,-2.007675844
12.19735531,-1.681521415,-2.007675844
12.67046727,-1.830619352,-2.007675844
12.97619418,-1.934715693,-2.007675844
12.79740824,-1.852141772,-3.011513766
12.98452304,-1.854704155,-3.011513766
12.49681368,-1.849048546,-3.011513766
12.0350785,-1.846924202,-3.011513766
11.37249462,-1.849700161,-3.011513766
10.50903488,-1.862831754,-3.011513766
9.514787241,-1.886140684,-3.011513766
8.52054861,-1.907951895,-3.011513766
7.657500348,-1.929736335,-3.011513766
6.995578285,-1.925420951,-3.011513766
6.537306931,-1.880332952,-3.011513766
6.25340819,-1.790096303,-3.011513766
6.136806671,-1.653134203,-3.011513766
6.199721023,-1.476491541,-3.011513766
6.449177784,-1.291563001,-3.011513766
6.894010892,-1.114279477,-3.011513766
7.566876714,-0.9733791453,-3.011513766
8.461472462,-0.9226727459,-3.011513766
9.490813094,-1.000561126,-3.011513766
10.51011512,-1.165431231,-3.011513766
11.3846436,-1.363501114,-3.011513766
12.04788631,-1.546667796,-3.011513766
12.50557189,-1.689763836,-3.011513766
12.80134412,-1.789734597,-3.011513766
12.62282457,-1.704208691,-4.015351689
12.80351387,-1.707066074,-4.015351689
12.33254769,-1.700657819,-4.015351689
11.88665139,-1.697863194,-4.015351689
11.24678034,-1.699739155,-4.015351689
10.41290605,-1.711856486,-4.015351689
9.45273353,-1.73448315,-4.015351689
8.49260504,-1.756675406,-4.015351689
7.659276138,-1.780252906,-4.015351689
7.020199926,-1.779564695,-4.015351689
6.577565459,-1.739712405,-4.015351689
6.302702913,-1.65615312,-4.015351689
6.188358957,-1.526136537,-4.015351689
6.250093202,-1.356127713,-4.015351689
6.491471754,-1.178200561,-4.015351689
6.920905442,-1.006714997,-4.015351689
7.570330545,-0.8693032225,-4.015351689
8.433991616,-0.8181738599,-4.015351689
9.428069571,-0.8908982999,-4.015351689
10.41267755,-1.047494559,-4.015351689
11.25757637,-1.236555896,-4.015351689
11.89841731,-1.411814177,-4.015351689
12.34067651,-1.548908319,-4.015351689
12.62649405,-1.644753501,-4.015351689
12.4482409,-1.55627561,-5.019189611
12.6225047,-1.559427992,-5.019189611
12.16828171,-1.552267091,-5.019189611
11.73822428,-1.548802186,-5.019189611
11.12106607,-1.549778149,-5.019189611
10.31677722,-1.560881218,-5.019189611
9.39067982,-1.582825615,-5.019189611
8.46466147,-1.605398917,-5.019189611
7.661051929,-1.630769477,-5.019189611
7.044821567,-1.63370844,-5.019189611
6.617823987,-1.599091859,-5.019189611
6.351997635,-1.522209937,-5.019189611
6.239911242,-1.399138872,-5.019189611
6.300465381,-1.235763884,-5.019189611
6.533765725,-1.064838121,-5.019189611
6.947799991,-0.8991505177,-5.019189611
7.573784377,-0.7652272998,-5.019189611
8.40651077,-0.7136749739,-5.019189611
9.365326049,-0.7812354738,-5.019189611
10.31523997,-0.9295578875,-5.019189611
11.13050914,-1.109610677,-5.019189611
11.7489483,-1.276960558,-5.019189611
12.17578113,-1.408052803,-5.019189611
12.45164399,-1.499772406,-5.019189611
12.27365722,-1.40834253,-6.023027533
12.44149553,-1.411789911,-6.023027533
12.00401572,-1.403876364,-6.023027533
11.58979717,-1.399741178,-6.023027533
10.99535179,-1.399817143,-6.023027533
10.2206484,-1.40990595,-6.023027533
9.328626109,-1.43116808,-6.023027533
8.4367179,-1.454122428,-6.023027533
7.662827719,-1.481286049,-6.023027533
7.069443207,-1.487852184,-6.023027533
6.658082514,-1.458471313,-6.023027533
6.401292357,-1.388266754,-6.023027533
6.291463528,-1.272141206,-6.023027533
6.350837559,-1.115400056,-6.023027533
6.576059696,-0.9514756809,-6.023027533
6.974694541,-0.7915860383,-6.023027533
7.577238209,-0.661151377,-6.023027533
8.379029923,-0.6091760879,-6.023027533
9.302582526,-0.6715726478,-6.023027533
10.21780239,-0.8116212157,-6.023027533
11.00344191,-0.9826654577,-6.023027533
11.5994793,-1.142106939,-6.023027533
12.01088575,-1.267197287,-6.023027533
12.27679393,-1.35479131,-6.023027533
12.09907355,-1.260409449,-7.026865455
12.26048636,-1.264151829,-7.026865455
11.83974973,-1.255485637,-7.026865455
11.44137007,-1.250680171,-7.026865455
10.86963752,-1.249856137,-7.026865455
10.12451957,-1.258930682,-7.026865455
9.266572398,-1.279510546,-7.026865455
8.40877433,-1.302845939,-7.026865455
7.664603509,-1.33180262,-7.026865455
7.094064848,-1.341995929,-7.026865455
6.698341042,-1.317850766,-7.026865455
6.45058708,-1.254323571,-7.026865455
6.343015814,-1.14514354,-7.026865455
6.401209738,-0.9950362277,-7.026865455
6.618353667,-0.8381132408,-7.026865455
7.001589091,-0.6840215588,-7.026865455
7.58069204,-0.5570754542,-7.026865455
8.351549077,-0.5046772019,-7.026865455
9.239839003,-0.5619098217,-7.026865455
10.12036481,-0.693684544,-7.026865455
10.87637468,-0.8557202387,-7.026865455
11.4500103,-1.00725332,-7.026865455
11.84599038,-1.126341771,-7.026865455
12.10194386,-1.209810214,-7.026865455
11.92448988,-1.112476369,-8.030703377
12.07947719,-1.116513748,-8.030703377
11.67548375,-1.107094909,-8.030703377
11.29294296,-1.101619163,-8.030703377
10.74392324,-1.099895131,-8.030703377
10.02839074,-1.107955414,-8.030703377
9.204518687,-1.127853011,-8.030703377
8.38083076,-1.151569451,-8.030703377
7.6663793,-1.182319191,-8.030703377
7.118686488,-1.196139674,-8.030703377
6.73859957,-1.17723022,-8.030703377
6.499881802,-1.120380387,-8.030703377
6.394568099,-1.018145875,-8.030703377
6.451581917,-0.8746723994,-8.030703377
6.660647637,-0.7247508007,-8.030703377
7.028483641,-0.5764570794,-8.030703377
7.584145872,-0.4529995315,-8.030703377
8.324068231,-0.4001783159,-8.030703377
9.17709548,-0.4522469956,-8.030703377
10.02292723,-0.5757478722,-8.030703377
10.74930745,-0.7287750198,-8.030703377
11.3005413,-0.8723997012,-8.030703377
11.681095,-0.9854862548,-8.030703377
11.9270938,-1.064829118,-8.030703377
11.7499062,-0.9645432883,-9.034541299
11.89846802,-0.968875666,-9.034541299
11.51121776,-0.9587041821,-9.034541299
11.14451585,-0.9525581554,-9.034541299
10.61820897,-0.9499341246,-9.034541299
9.93226191,-0.9569801455,-9.034541299
9.142464976,-0.9761954765,-9.034541299
8.352887189,-1.000292962,-9.034541299
7.66815509,-1.032835762,-9.034541299
7.143308129,-1.050283418,-9.034541299
6.778858098,-1.036609674,-9.034541299
6.549176525,-0.9864372042,-9.034541299
6.446120385,-0.8911482092,-9.034541299
6.501954095,-0.7543085711,-9.034541299
6.702941608,-0.6113883606,-9.034541299
7.055378191,-0.4688926,-9.034541299
7.587599704,-0.3489236087,-9.034541299
8.296587384,-0.29567943,-9.034541299
9.114351958,-0.3425841695,-9.034541299
9.925489651,-0.4578112005,-9.034541299
10.62224022,-0.6018298009,-9.034541299
11.15107229,-0.7375460822,-9.034541299
11.51619962,-0.8446307386,-9.034541299
11.75224374,-0.9198480228,-9.034541299
11.57532253,-0.8166102077,-10.03837922
11.71745885,-0.8212375844,-10.03837922
11.34695178,-0.8103134548,-10.03837922
10.99608874,-0.8034971477,-10.03837922
10.49249469,-0.7999731185,-10.03837922
9.836133081,-0.8060048774,-10.03837922
9.080411265,-0.8245379418,-10.03837922
8.324943619,-0.8490164728,-10.03837922
7.66993088,-0.8833523337,-10.03837922
7.16792977,-0.9044271627,-10.03837922
6.819116626,-0.8959891274,-10.03837922
6.598471247,-0.852494021,-10.03837922
6.497672671,-0.7641505435,-10.03837922
6.552326274,-0.6339447428,-10.03837922
6.745235579,-0.4980259204,-10.03837922
7.08227274,-0.3613281205,-10.03837922
7.591053535,-0.2448476859,-10.03837922
8.269106538,-0.191180544,-10.03837922
9.051608435,-0.2329213435,-10.03837922
9.828052072,-0.3398745288,-10.03837922
10.49517299,-0.4748845819,-10.03837922
11.00160329,-0.6026924632,-10.03837922
11.35130424,-0.7037752225,-10.03837922
11.57739367,-0.774866927,-10.03837922
11.40073885,-0.6686771272,-11.04221714
11.53644967,-0.6735995029,-11.04221714
11.18268579,-0.6619227275,-11.04221714
10.84766164,-0.65443614,-11.04221714
10.36678042,-0.6500121124,-11.04221714
9.740004253,-0.6550296093,-11.04221714
9.018357554,-0.6728804072,-11.04221714
8.297000049,-0.6977399839,-11.04221714
7.671706671,-0.733868905,-11.04221714
7.19255141,-0.7585709072,-11.04221714
6.859375153,-0.7553685811,-11.04221714
6.64776597,-0.7185508378,-11.04221714
6.549224956,-0.6371528779,-11.04221714
6.602698453,-0.5135809144,-11.04221714
6.78752955,-0.3846634803,-11.04221714
7.10916729,-0.2537636411,-11.04221714
7.594507367,-0.1407717631,-11.04221714
8.241625692,-0.08668165799,-11.04221714
8.988864912,-0.1232585174,-11.04221714
9.730614493,-0.221937857,-11.04221714
10.36810576,-0.347939363,-11.04221714
10.85213429,-0.4678388442,-11.04221714
11.18640886,-0.5629197063,-11.04221714
11.40254361,-0.6298858313,-11.04221714
11.22615518,-0.5207440466,-12.04605507
11.3554405,-0.5259614213,-12.04605507
11.01841981,-0.5135320003,-12.04605507
10.69923453,-0.5053751323,-12.04605507
10.24106614,-0.5000511064,-12.04605507
9.643875424,-0.5040543413,-12.04605507
8.956303843,-0.5212228725,-12.04605507
8.269056479,-0.5464634951,-12.04605507
7.673482461,-0.5843854763,-12.04605507
7.217173051,-0.6127146518,-12.04605507
6.899633681,-0.6147480348,-12.04605507
6.697060692,-0.5846076546,-12.04605507
6.600777242,-0.5101552123,-12.04605507
6.653070631,-0.3932170861,-12.04605507
6.829823521,-0.2713010402,-12.04605507
7.13606184,-0.1461991617,-12.04605507
7.597961199,-0.03669584038,-12.04605507
8.214144845,0.01781722799,-12.04605507
8.92612139,-0.01359569133,-12.04605507
9.633176915,-0.1040011853,-12.04605507
10.24103852,-0.220994144,-12.04605507
10.70266528,-0.3329852252,-12.04605507
11.02151349,-0.4220641902,-12.04605507
11.22769355,-0.4849047356,-12.04605507
11.05157151,-0.3728109661,-13.04989299
11.17443133,-0.3783233398,-13.04989299
10.85415382,-0.365141273,-13.04989299
10.55080742,-0.3563141247,-13.04989299
10.11535187,-0.3500901003,-13.04989299
9.547746595,-0.3530790732,-13.04989299
8.894250132,-0.3695653379,-13.04989299
8.241112909,-0.3951870062,-13.04989299
7.675258251,-0.4349020477,-13.04989299
7.241794691,-0.4668583963,-13.04989299
6.939892209,-0.4741274884,-13.04989299
6.746355415,-0.4506644714,-13.04989299
6.652329528,-0.3831575466,-13.04989299
6.70344281,-0.2728532578,-13.04989299
6.872117491,-0.1579386001,-13.04989299
7.16295639,-0.03863468223,-13.04989299
7.60141503,0.06738008239,-13.04989299
8.186663999,0.122316114,-13.04989299
8.863377867,0.09606713474,-13.04989299
9.535739336,0.01393548649,-13.04989299
10.11397129,-0.0940489251,-13.04989299
10.55319628,-0.1981316061,-13.04989299
10.85661811,-0.281208674,-13.04989299
11.05284348,-0.3399236399,-13.04989299
10.87698783,-0.2248778856,-14.05373091
10.99342216,-0.2306852582,-14.05373091
10.68988784,-0.2167505457,-14.05373091
10.40238031,-0.207253117,-14.05373091
9.98963759,-0.2001290943,-14.05373091
9.451617766,-0.2021038051,-14.05373091
8.832196422,-0.2179078032,-14.05373091
8.213169339,-0.2439105173,-14.05373091
7.677034042,-0.285418619,-14.05373091
7.266416332,-0.3210021409,-14.05373091
6.980150737,-0.3335069421,-14.05373091
6.795650137,-0.3167212883,-14.05373091
6.703881813,-0.256159881,-14.05373091
6.753814989,-0.1524894295,-14.05373091
6.914411462,-0.04457615993,-14.05373091
7.189850939,0.0689297972,-14.05373091
7.604868862,0.1714560052,-14.05373091
8.159183153,0.226815,-14.05373091
8.800634344,0.2057299608,-14.05373091
9.438301757,0.1318721582,-14.05373091
9.986904062,0.03289629384,-14.05373091
10.40372728,-0.06327798712,-14.05373091
10.69172273,-0.1403531578,-14.05373091
10.87799342,-0.1949425442,-14.05373091
10.70240416,-0.07694480502,-15.05756883
10.81241299,-0.08304717663,-15.05756883
10.52562185,-0.06835981841,-15.05756883
10.25395321,-0.05819210928,-15.05756883
9.863923314,-0.05016808821,-15.05756883
9.355488938,-0.05112853703,-15.05756883
8.770142711,-0.06625026858,-15.05756883
8.185225769,-0.0926340284,-15.05756883
7.678809832,-0.1359351903,-15.05756883
7.291037973,-0.1751458854,-15.05756883
7.020409264,-0.1928863958,-15.05756883
6.844944859,-0.1827781051,-15.05756883
6.755434099,-0.1291622153,-15.05756883
6.804187167,-0.03212560121,-15.05756883
6.956705433,0.06878628019,-15.05756883
7.216745489,0.1764942766,-15.05756883
7.608322694,0.2755319279,-15.05756883
8.131702306,0.3313138859,-15.05756883
8.737890821,0.3153927869,-15.05756883
9.340864178,0.24980883,-15.05756883
9.859836831,0.1598415128,-15.05756883
10.25425827,0.07157563189,-15.05756883
10.52682735,0.0005023583145,-15.05756883
10.70314336,-0.04996144844,-15.05756883
10.52782049,0.07098827552,-16.06140675
10.63140382,0.06459090493,-16.06140675
10.36135586,0.08003090888,-16.06140675
10.1055261,0.09086889841,-16.06140675
9.738209039,0.09979291785,-16.06140675
9.259360109,0.09984673104,-16.06140675
8.708089,0.08540726607,-16.06140675
8.157282199,0.05864246048,-16.06140675
7.680585622,0.01354823842,-16.06140675
7.315659613,-0.02928962999,-16.06140675
7.060667792,-0.05226584948,-16.06140675
6.894239582,-0.04883492189,-16.06140675
6.806986385,-0.002164549691,-16.06140675
6.854559346,0.0882382271,-16.06140675
6.998999404,0.1821487203,-16.06140675
7.243640039,0.2840587561,-16.06140675
7.611776525,0.3796078507,-16.06140675
8.10422146,0.4358127719,-16.06140675
8.675147299,0.425055613,-16.06140675
9.243426599,0.3677455017,-16.06140675
9.7327696,0.2867867317,-16.06140675
10.10478927,0.2064292509,-16.06140675
10.36193198,0.1413578745,-16.06140675
10.52829329,0.09501964728,-16.06140675
10.52434715,0.07753288239,-16.08209093
10.35281811,0.09669045042,-16.11417409
