x,y,z
16.23533143,-0.7697751449,-28.18513249
15.3760891,-0.823930359,-28.30501273
14.52443301,-0.8565080827,-28.34514927
13.78612496,-0.8539191036,-28.29574932
13.21772326,-0.8339053066,-28.20615373
12.81997431,-0.8052846227,-28.10333721
12.56198448,-0.7696381893,-27.99459474
12.53994063,-0.5754537123,-27.97586998
12.78898947,-0.4714179899,-28.07114775
13.18244052,-0.3675280059,-28.16119508
13.75123857,-0.2716852588,-28.23963162
14.49510004,-0.2094317684,-28.28279331
15.35615583,-0.2260339416,-28.24740783
16.22287231,-0.3244884956,-28.14224042
16.98194992,-0.4435012378,-28.02417643
17.56946777,-0.5390250448,-27.93214182
17.9810839,-0.5978720521,-27.87689182
18.24933322,-0.6273686169,-27.85022123
18.24916693,-0.6372820537,-27.85907889
17.97857742,-0.6384484876,-27.91303629
17.561941,-0.6425899922,-28.02443088
16.96808432,-0.6512774684,-28.2095661
16.20721559,-0.6650673906,-28.44657318
15.35027775,-0.6838508097,-28.65704634
14.50880817,-0.7051006361,-28.72690477
13.78128226,-0.717601837,-28.63967369
13.21912269,-0.7245294439,-28.48188234
12.8232074,-0.7268148673,-28.30093265
12.56435877,-0.7238874086,-28.10973131
12.5474624,-0.5750728863,-28.09538092
12.7994746,-0.4711836806,-28.27628487
13.19211397,-0.3677434446,-28.4474862
13.75458736,-0.2725182869,-28.59677237
14.48636182,-0.2106553959,-28.67925442
15.3350139,-0.2268340926,-28.61301257
16.19766768,-0.3243617808,-28.41375418
16.96172035,-0.4429317753,-28.18949969
17.55762895,-0.5385496103,-28.01440996
17.97599083,-0.5976348199,-27.90910423
18.2480358,-0.6273010797,-27.85811673
18.24789232,-0.6337105455,-27.86406391
17.97422903,-0.6238693012,-27.93336904
17.55243533,-0.6055072211,-28.0763508
16.9521999,-0.5772580146,-28.31387599
16.18685621,-0.5445288769,-28.61782097
15.33063158,-0.5227707692,-28.88756158
14.49496805,-0.5310536038,-28.9768628
13.77407941,-0.5607683643,-28.86490347
13.21607677,-0.5985313537,-28.66250716
12.82187672,-0.6362990675,-28.43041959
12.56345576,-0.6710424269,-28.18521181
12.55415581,-0.5891004613,-28.17731073
12.80881506,-0.4954908356,-28.41684462
13.20121598,-0.4019386624,-28.64355716
13.75939899,-0.3154505941,-28.84126078
14.48263488,-0.2584846471,-28.95059846
15.32225273,-0.2708679098,-28.86329321
16.1816145,-0.3568093061,-28.59973942
16.94870211,-0.4625152199,-28.30282467
17.55006314,-0.5482278535,-28.07083361
17.97280556,-0.6014039791,-27.93120462
18.24726979,-0.6282172086,-27.86353435
18.24719885,-0.6304065269,-27.86570006
17.97211762,-0.6103670611,-27.94004005
17.54808906,-0.5711133468,-28.09338463
16.94510889,-0.5084559693,-28.34809632
16.17749686,-0.4321705469,-28.67399484
15.32039921,-0.3722391228,-28.96316805
14.48542677,-0.3682619969,-29.05885251
13.76611417,-0.4141849483,-28.93880472
13.20956668,-0.4809486781,-28.72179721
12.81664734,-0.5519834795,-28.472944
12.55974854,-0.6219142335,-28.21001477
22.70557463,-3.082917641,4.331580092
22.38863206,-3.083060421,4.331816034
21.87983301,-3.101919412,4.333089551
21.09932214,-3.150916841,4.33600695
19.9806514,-3.239904822,4.341089434
18.52284416,-3.357411283,4.347786731
16.84191617,-3.463354438,4.354089936
15.15831363,-3.497155041,4.356930211
13.69726017,-3.4345478,4.354979352
12.57983001,-3.332309863,4.350876741
11.80631792,-3.217948494,4.345943283
11.31246347,-3.095652116,4.340426587
11.07600298,-2.907899207,4.331580102
11.27663471,-2.681370629,4.32055537
11.75928341,-2.503954008,4.311685548
12.53106118,-2.332605714,4.302898194
13.65587224,-2.183965856,4.29494631
15.1324828,-2.105948779,4.290132019
16.83334222,-2.179663437,4.292443014
18.52146745,-2.404603114,4.30202625
19.97828838,-2.659966266,4.31323785
21.09499133,-2.862286144,4.322147723
21.87566792,-2.988883717,4.327663683
22.3862431,-3.055412164,4.33048987
22.45203559,-2.919515313,5.72702561
22.14420818,-2.920568164,5.727306855
21.65009601,-2.940338117,5.728824903
20.89217333,-2.990140539,5.732302475
19.80593159,-3.079728366,5.738360856
18.390389,-3.197971032,5.746344112
16.75810874,-3.305635411,5.753857605
15.1230218,-3.343294816,5.757243246
13.70380443,-3.286750635,5.754917799
12.61821348,-3.190754521,5.750027439
11.86661495,-3.082000793,5.7441467
11.38660856,-2.964739591,5.737570734
11.15640423,-2.783211823,5.727025621
11.35060971,-2.562792278,5.713884013
11.81886412,-2.389221223,5.703311081
12.56795031,-2.220705288,5.692836453
13.65998292,-2.073208972,5.683357716
15.09390251,-1.993235605,5.677619024
16.74606161,-2.05986751,5.680373758
18.38629092,-2.273296557,5.691797086
19.80195603,-2.516918134,5.705161444
20.8871307,-2.71004357,5.715782116
21.64572315,-2.830651586,5.722357204
22.14180781,-2.893743056,5.725726053
22.19849654,-2.756112986,7.122471127
21.89978429,-2.758075906,7.122797677
21.420359,-2.778756821,7.124560254
20.68502452,-2.829364238,7.128598001
19.63121179,-2.91955191,7.135632278
18.25793384,-3.03853078,7.144901492
16.67430132,-3.147916384,7.153625274
15.08772997,-3.189434591,7.15755628
13.71034869,-3.138953469,7.154856246
12.65659695,-3.049199178,7.149178137
11.92691197,-2.946053092,7.142350117
11.46075365,-2.833827066,7.134714882
11.23680549,-2.65852444,7.12247114
11.42458471,-2.444213927,7.107212656
11.87844483,-2.274488438,7.094936615
12.60483944,-2.108804862,7.082774713
13.66409361,-1.962452088,7.071769121
15.05532223,-1.880522431,7.06510603
16.65878099,-1.940071583,7.068304502
18.25111439,-2.141990001,7.081567923
19.62562369,-2.373870001,7.097085038
20.67927007,-2.557800996,7.109416509
21.41577838,-2.672419454,7.117050726
21.89737251,-2.732073949,7.120962235
21.9449575,-2.592710658,8.517916645
21.65536041,-2.595583649,8.518288498
21.190622,-2.617175526,8.520295605
20.47787571,-2.668587936,8.524893526
19.45649198,-2.759375454,8.532903699
18.12547869,-2.879090528,8.543458872
16.59049389,-2.990197356,8.553392943
15.05243814,-3.035574366,8.557869315
13.71689295,-2.991156304,8.554794693
12.69498041,-2.907643836,8.548328835
11.98720899,-2.81010539,8.540553533
11.53489874,-2.702914541,8.531859029
11.31720674,-2.533837057,8.51791666
11.49855971,-2.325635576,8.500541298
11.93802554,-2.159755653,8.486562149
12.64172856,-1.996904436,8.472712973
13.66820429,-1.851695203,8.460180527
15.01674194,-1.767809257,8.452593036
16.57150037,-1.820275657,8.456235246
18.11593786,-2.010683445,8.471338759
19.44929134,-2.230821869,8.489008632
20.47140944,-2.405558422,8.503050902
21.18583361,-2.514187323,8.511744247
21.65293722,-2.570404842,8.516198417
21.69141845,-2.42930833,9.913362163
21.41093653,-2.433091392,9.913779319
20.96088499,-2.45559423,9.916030956
20.27072691,-2.507811635,9.921189052
19.28177217,-2.599198998,9.930175121
17.99302353,-2.719650276,9.942016253
16.50668646,-2.832478329,9.953160612
15.01714631,-2.881714142,9.95818235
13.72343721,-2.843359138,9.954733141
12.73336388,-2.766088494,9.947479533
12.04750601,-2.674157689,9.93875695
11.60904383,-2.572002016,9.929003176
11.39760799,-2.409149673,9.913362179
11.57253471,-2.207057225,9.893869941
11.99760625,-2.045022868,9.878187683
12.67861769,-1.88500401,9.862651233
13.67231498,-1.740938319,9.848591933
14.97816165,-1.655096082,9.840080042
16.48421975,-1.70047973,9.844165989
17.98076134,-1.879376889,9.861109596
19.272959,-2.087773736,9.880932226
20.26354881,-2.253315848,9.896685295
20.95588884,-2.355955192,9.906437769
21.40850192,-2.408735735,9.911434599
21.22344622,-2.173396108,12.47455917
20.95974542,-2.177257379,12.47495133
20.53663812,-2.198901218,12.47706809
19.88781852,-2.248740376,12.4819172
18.9581173,-2.335727559,12.49036497
17.7465859,-2.450363265,12.50149678
16.34927654,-2.558047215,12.51197355
14.94888662,-2.605952255,12.51669447
13.73251901,-2.571301247,12.51345188
12.80158294,-2.499736038,12.50663279
12.15664979,-2.414058316,12.49843272
11.74430325,-2.318499411,12.48926323
11.54533757,-2.165633455,12.47455918
11.70958158,-1.975458356,12.4562346
12.10905153,-1.822669564,12.44149176
12.74915452,-1.671497341,12.426886
13.6832574,-1.534982665,12.4136689
14.9109017,-1.452863969,12.4056669
16.3269243,-1.493891729,12.40950808
17.73414462,-1.660444472,12.42543671
18.94927587,-1.854951661,12.44407189
19.88079339,-2.009499382,12.4588813
20.53183261,-2.105237042,12.46804957
20.95742998,-2.15436353,12.47274707
20.75547399,-1.917483886,15.03575617
20.50855431,-1.921423366,15.03612335
20.11239126,-1.942208205,15.03810522
19.50491013,-1.989669117,15.04264534
18.63446243,-2.07225612,15.05055482
17.50014828,-2.181076253,15.0609773
16.19186662,-2.283616101,15.07078649
14.88062693,-2.330190368,15.07520659
13.7416008,-2.299243356,15.07217062
12.869802,-2.233383581,15.06578604
12.26579356,-2.153958943,15.05810848
11.87956267,-2.064996806,15.04952328
11.69306716,-1.922117237,15.03575618
11.84662845,-1.743859487,15.01859925
12.2204968,-1.60031626,15.00479584
12.81969134,-1.457990672,14.99112076
13.69419982,-1.329027012,14.97874586
14.84364174,-1.250631856,14.97125376
16.16962885,-1.287303729,14.97485018
17.48752791,-1.441512056,14.98976382
18.62559275,-1.622129586,15.00721156
19.49803797,-1.765682916,15.02107731
20.10777638,-1.854518892,15.02966137
20.50635805,-1.899991324,15.03405954
20.28750176,-1.661571664,17.59695317
20.05736319,-1.665589353,17.59729536
19.68814439,-1.685515192,17.59914236
19.12200174,-1.730597859,17.60337349
18.31080757,-1.808784681,17.61074467
17.25371065,-1.911789242,17.62045782
16.03445669,-2.009184988,17.62959943
14.81236724,-2.054428481,17.6337187
13.7506826,-2.027185465,17.63088935
12.93802106,-1.967031125,17.6249393
12.37493733,-1.89385957,17.61778425
12.01482209,-1.811494201,17.60978333
11.84079674,-1.678601019,17.59695319
11.98367533,-1.512260618,17.58096391
12.33194207,-1.377962956,17.56809991
12.89022817,-1.244484003,17.55535552
13.70514224,-1.123071358,17.54382283
14.77638179,-1.048399743,17.53684061
16.01233341,-1.080715729,17.54019227
17.24091119,-1.22257964,17.55409094
18.30190962,-1.389307511,17.57035123
19.11528256,-1.52186645,17.58327331
19.68372015,-1.603800743,17.59127316
20.05528611,-1.645619119,17.59537201
19.81952952,-1.405659442,20.15815018
19.60617208,-1.40975534,20.15846737
19.26389753,-1.42882218,20.16017949
18.73909335,-1.4715266,20.16410163
17.9871527,-1.545313242,20.17093452
17.00727302,-1.642502231,20.17993835
15.87704677,-1.734753874,20.18841236
14.74410755,-1.778666594,20.19223082
13.75976439,-1.755127574,20.18960809
13.00624012,-1.700678669,20.18409255
12.4840811,-1.633760197,20.17746002
12.15008151,-1.557991596,20.17004338
11.98852632,-1.435084801,20.15815019
12.1207222,-1.280661749,20.14332856
12.44338734,-1.155609651,20.13140399
12.96076499,-1.030977334,20.11959029
13.71608466,-0.9171157037,20.10889979
14.70912184,-0.8461676294,20.10242747
15.85503796,-0.8741277282,20.10553437
16.99429447,-1.003647224,20.11841805
17.9782265,-1.156485435,20.1334909
18.73252714,-1.278049983,20.14546932
19.25966392,-1.353082593,20.15288496
19.60421417,-1.391246913,20.15668448
19.35155729,-1.14974722,22.71934718
19.15498097,-1.153921326,22.71963939
18.83965066,-1.172129167,22.72121662
18.35618496,-1.212455341,22.72482978
17.66349783,-1.281841802,22.73112436
16.7608354,-1.373215219,22.73941887
15.71963685,-1.46032276,22.7472253
14.67584786,-1.502904707,22.75074294
13.76884618,-1.483069684,22.74832683
13.07445918,-1.434326212,22.7432458
12.59322487,-1.373660824,22.73713579
12.28534093,-1.30448899,22.73030344
12.1362559,-1.191568583,22.71934719
12.25776908,-1.049062881,22.70569322
12.55483261,-0.9332563471,22.69470807
13.03130182,-0.8174706652,22.68382505
13.72702708,-0.7111600498,22.67397676
14.64186188,-0.6439355162,22.66801433
15.69774251,-0.6675397278,22.67087646
16.74767776,-0.7847148075,22.68274516
17.65454337,-0.92366336,22.69663057
18.34977172,-1.034233517,22.70766532
18.83560769,-1.102364443,22.71449676
19.15314223,-1.136874708,22.71799695
18.88358506,-0.8938349985,25.28054418
18.70378986,-0.8980873133,25.2808114
18.41540379,-0.9154361543,25.28225375
17.97327657,-0.9533840828,25.28555792
17.33984296,-1.018370363,25.29131421
16.51439777,-1.103928208,25.29889939
15.56222692,-1.185891646,25.30603824
14.60758817,-1.22714282,25.30925506
13.77792798,-1.211011793,25.30704557
13.14267823,-1.167973756,25.30239906
12.70236864,-1.11356145,25.29681155
12.42060035,-1.050986385,25.29056349
12.28398549,-0.9480523649,25.28054419
12.39481595,-0.8174640118,25.26805787
12.66627788,-0.7109030429,25.25801214
13.10183865,-0.6039639961,25.24805982
13.7379695,-0.5052043959,25.23905372
14.57460193,-0.441703403,25.23360118
15.54044706,-0.4609517274,25.23621855
16.50106104,-0.5657823913,25.24707228
17.33086025,-0.6908412848,25.25977024
17.9670163,-0.790417051,25.26986133
18.41155145,-0.8516462938,25.27610856
18.7020703,-0.8825025026,25.27930942
18.41561283,-0.6379227764,27.84174118
18.25259874,-0.6422533001,27.84198342
17.99115693,-0.6587431416,27.84329089
17.59036818,-0.6943128241,27.84628607
17.01618809,-0.754898924,27.85150406
16.26796014,-0.8346411965,27.85837992
15.404817,-0.9114605317,27.86485118
14.53932848,-0.951380933,27.86776718
13.78700977,-0.9389539017,27.86576431
13.21089729,-0.9016212998,27.86155231
12.81151241,-0.8534620774,27.85648732
12.55585977,-0.7974837802,27.85082354
12.43171507,-0.7045361468,27.84174119
12.53186283,-0.585865143,27.83042253
12.77772315,-0.4885497386,27.82131622
13.17237547,-0.3904573271,27.81229458
13.74891192,-0.299248742,27.80413069
14.50734198,-0.2394712897,27.79918804
15.38315161,-0.2543637271,27.80156065
16.25444433,-0.346849975,27.81139939
17.00717712,-0.4580192095,27.82290991
17.58426088,-0.5466005848,27.83205733
17.98749522,-0.6009281442,27.83772036
18.25099836,-0.6281302972,27.8406219
18.25080747,-0.6403774919,27.85147529
17.98445574,-0.6510809808,27.88201813
17.57509048,-0.6747343099,27.9452132
16.99025083,-0.7154969114,28.05037326
16.23533143,-0.7697751449,28.18513249
15.3760891,-0.823930359,28.30501273
14.52443301,-0.8565080827,28.34514927
13.78612496,-0.8539191036,28.29574932
13.21772326,-0.8339053066,28.20615373
12.81997431,-0.8052846227,28.10333721
12.56198448,-0.7696381893,27.99459474
12.53994063,-0.5754537123,27.97586998
12.78898947,-0.4714179899,28.07114775
13.18244052,-0.3675280059,28.16119508
13.75123857,-0.2716852588,28.23963162
14.49510004,-0.2094317684,28.28279331
15.35615583,-0.2260339416,28.24740783
16.22287231,-0.3244884956,28.14224042
16.98194992,-0.4435012378,28.02417643
17.56946777,-0.5390250448,27.93214182
17.9810839,-0.5978720521,27.87689182
18.24933322,-0.6273686169,27.85022123
18.24916693,-0.6372820537,27.85907889
17.97857742,-0.6384484876,27.91303629
17.561941,-0.6425899922,28.02443088
16.96808432,-0.6512774684,28.2095661
16.20721559,-0.6650673906,28.44657318
15.35027775,-0.6838508097,28.65704634
14.50880817,-0.7051006361,28.72690477
13.78128226,-0.717601837,28.63967369
13.21912269,-0.7245294439,28.48188234
12.8232074,-0.7268148673,28.30093265
12.56435877,-0.7238874086,28.10973131
12.5474624,-0.5750728863,28.09538092
12.7994746,-0.4711836806,28.27628487
13.19211397,-0.3677434446,28.4474862
13.75458736,-0.2725182869,28.59677237
14.48636182,-0.2106553959,28.67925442
15.3350139,-0.2268340926,28.61301257
16.19766768,-0.3243617808,28.41375418
16.96172035,-0.4429317753,28.18949969
17.55762895,-0.5385496103,28.01440996
17.97599083,-0.5976348199,27.90910423
18.2480358,-0.6273010797,27.85811673
18.24789232,-0.6337105455,27.86406391
17.97422903,-0.6238693012,27.93336904
17.55243533,-0.6055072211,28.0763508
16.9521999,-0.5772580146,28.31387599
16.18685621,-0.5445288769,28.61782097
15.33063158,-0.5227707692,28.88756158
14.49496805,-0.5310536038,28.9768628
13.77407941,-0.5607683643,28.86490347
13.21607677,-0.5985313537,28.66250716
12.82187672,-0.6362990675,28.43041959
12.56345576,-0.6710424269,28.18521181
12.55415581,-0.5891004613,28.17731073
12.80881506,-0.4954908356,28.41684462
13.20121598,-0.4019386624,28.64355716
13.75939899,-0.3154505941,28.84126078
14.48263488,-0.2584846471,28.95059846
15.32225273,-0.2708679098,28.86329321
16.1816145,-0.3568093061,28.59973942
16.94870211,-0.4625152199,28.30282467
17.55006314,-0.5482278535,28.07083361
17.97280556,-0.6014039791,27.93120462
18.24726979,-0.6282172086,27.86353435
18.24719885,-0.6304065269,27.86570006
17.97211762,-0.6103670611,27.94004005
17.54808906,-0.5711133468,28.09338463
16.94510889,-0.5084559693,28.34809632
16.17749686,-0.4321705469,28.67399484
15.32039921,-0.3722391228,28.96316805
14.48542677,-0.3682619969,29.05885251
13.76611417,-0.4141849483,28.93880472
13.20956668,-0.4809486781,28.72179721
12.81664734,-0.5519834795,28.472944
12.55974854,-0.6219142335,28.21001477
0.0,-0.1999477548,-0.0
1.99542492,-0.145645597,-1.056569251
1.99542492,-0.4263879179,-1.018800448
1.99542492,-0.6787427112,-0.9122297659
1.99542492,-0.8926063889,-0.7469607919
1.99542492,-1.057875363,-0.5330971142
1.99542492,-1.164446045,-0.2807423209
1.99542492,-1.202214848,-0.0
1.99542492,-1.164446045,0.2807423209
1.99542492,-1.057875363,0.5330971142
1.99542492,-0.8926063889,0.7469607919
1.99542492,-0.6787427112,0.9122297659
1.99542492,-0.4263879179,1.018800448
1.99542492,-0.145645597,1.056569251
1.99542492,0.1350967238,1.018800448
1.99542492,0.3874515171,0.9122297659
1.99542492,0.6013151948,0.7469607919
1.99542492,0.7665841689,0.5330971142
1.99542492,0.8731548512,0.2807423209
1.99542492,0.9109236538,-1.283953296e-34
1.99542492,0.8731548512,-0.2807423209
1.99542492,0.7665841689,-0.5330971142
1.99542492,0.6013151948,-0.7469607919
1.99542492,0.3874515171,-0.9122297659
1.99542492,0.1350967238,-1.018800448
2.213108122,-0.145645597,-1.234855383
2.208081176,-0.4164564538,-1.19399777
2.196957817,-0.6621667537,-1.075978276
2.185674265,-0.8760949351,-0.8876269181
2.178883178,-1.049694552,-0.6369262389
2.176102967,-1.166959624,-0.3364688781
2.175568486,-1.210019285,-2.492861884e-17
2.176102967,-1.166959624,0.3364688781
2.178883178,-1.049694552,0.6369262389
2.185674265,-0.8760949351,0.8876269181
2.196957817,-0.6621667537,1.075978276
2.208081176,-0.4164564538,1.19399777
2.213108122,-0.145645597,1.234855383
2.208081176,0.1251652597,1.19399777
2.196957817,0.3708755596,1.075978276
2.185674265,0.584803741,0.8876269181
2.178883178,0.7584033584,0.6369262389
2.176102967,0.8756684302,0.3364688781
2.175568486,0.9187280909,-9.502706378e-18
2.176102967,0.8756684302,-0.3364688781
2.178883178,0.7584033584,-0.6369262389
2.185674265,0.584803741,-0.8876269181
2.196957817,0.3708755596,-1.075978276
2.208081176,0.1251652597,-1.19399777
2.305994642,-0.145645597,-1.592415718
2.295837481,-0.4048350399,-1.543490554
2.273363565,-0.6430410959,-1.398780429
2.250569244,-0.8579501916,-1.161383395
2.236856214,-1.042980356,-0.8372104136
2.231247553,-1.174476025,-0.4434241047
2.230171683,-1.22451324,-5.409767284e-17
2.231247553,-1.174476025,0.4434241047
2.236856214,-1.042980356,0.8372104136
2.250569244,-0.8579501916,1.161383395
2.273363565,-0.6430410959,1.398780429
2.295837481,-0.4048350399,1.543490554
2.305994642,-0.145645597,1.592415718
2.295837481,0.1135438458,1.543490554
2.273363565,0.3517499018,1.398780429
2.250569244,0.5666589975,1.161383395
2.236856214,0.7516891615,0.8372104136
2.231247553,0.8831848311,0.4434241047
2.230171683,0.9332220456,-1.962515448e-17
2.231247553,0.8831848311,-0.4434241047
2.236856214,0.7516891615,-0.8372104136
2.250569244,0.5666589975,-1.161383395
2.273363565,0.3517499018,-1.398780429
2.295837481,0.1135438458,-1.543490554
2.410315249,-0.145645597,-1.944216219
2.410315249,-0.4343865778,-1.874717018
2.410315249,-0.6939312388,-1.678613972
2.410315249,-0.9138881297,-1.374498913
2.410315249,-1.0838658,-0.9809636755
2.410315249,-1.193472799,-0.5166000933
2.410315249,-1.232317677,-0.0
2.410315249,-1.193472799,0.5166000933
2.410315249,-1.0838658,0.9809636755
2.410315249,-0.9138881297,1.374498913
2.410315249,-0.6939312388,1.678613972
2.410315249,-0.4343865778,1.874717018
2.410315249,-0.145645597,1.944216219
2.410315249,0.1430953837,1.874717018
2.410315249,0.4026400448,1.678613972
2.410315249,0.6225969357,1.374498913
2.410315249,0.792574606,0.9809636755
2.410315249,0.9021816051,0.5166000933
2.410315249,0.9410264827,-0.0
2.410315249,0.9021816051,-0.5166000933
2.410315249,0.792574606,-0.9809636755
2.410315249,0.6225969357,-1.374498913
2.410315249,0.4026400448,-1.678613972
2.410315249,0.1430953837,-1.874717018
2.559532624,-0.1853898936,-2.158880298
2.567973723,-0.511651408,-2.075954679
2.586661565,-0.8009058133,-1.846754269
2.605642974,-1.036018654,-1.500643746
2.61711135,-1.203137051,-1.06496933
2.62184642,-1.301534425,-0.5590034301
2.622774486,-1.333765773,4.58617519e-17
2.62184642,-1.301534425,0.5590034301
2.61711135,-1.203137051,1.06496933
2.605642974,-1.036018654,1.500643746
2.586661565,-0.8009058133,1.846754269
2.567973723,-0.511651408,2.075954679
2.559532624,-0.1853898936,2.158880298
2.567973723,0.1408716208,2.075954679
2.586661565,0.4301260261,1.846754269
2.605642974,0.6652388672,1.500643746
2.61711135,0.832357264,1.06496933
2.62184642,0.930754638,0.5590034301
2.622774486,0.9629859856,1.987046891e-17
2.62184642,0.930754638,-0.5590034301
2.61711135,0.832357264,-1.06496933
2.605642974,0.6652388672,-1.500643746
2.586661565,0.4301260261,-1.846754269
2.567973723,0.1408716208,-2.075954679
2.760833927,-0.272827346,-2.367141807
2.766145224,-0.6220480569,-2.281484801
2.777926937,-0.9344330611,-2.040646283
2.7899508,-1.195368432,-1.668825002
2.797318795,-1.39148521,-1.189869632
2.800453896,-1.514394303,-0.6262285351
2.801109324,-1.556951584,2.862293735e-17
2.800453896,-1.514394303,0.6262285351
2.797318795,-1.39148521,1.189869632
2.7899508,-1.195368432,1.668825002
2.777926937,-0.9344330611,2.040646283
2.766145224,-0.6220480569,2.281484801
2.760833927,-0.272827346,2.367141807
2.766145224,0.0763933649,2.281484801
2.777926937,0.388778369,2.040646283
2.7899508,0.64971374,1.668825002
2.797318795,0.8458305182,1.189869632
2.800453896,0.9687396109,0.6262285351
2.801109324,1.011296892,1.952186419e-17
2.800453896,0.9687396109,-0.6262285351
2.797318795,0.8458305182,-1.189869632
2.7899508,0.64971374,-1.668825002
2.777926937,0.388778369,-2.040646283
2.766145224,0.0763933649,-2.281484801
2.994450711,-0.3602647984,-2.56170044
2.993976559,-0.7284374692,-2.474321697
2.992961286,-1.061112992,-2.224265785
2.992015673,-1.347365125,-1.829653174
2.991599288,-1.574853502,-1.310097676
2.99156687,-1.725581257,-0.6911864512
2.991621946,-1.780137395,-2.927345866e-18
2.99156687,-1.725581257,0.6911864512
2.991599288,-1.574853502,1.310097676
2.992015673,-1.347365125,1.829653174
2.992961286,-1.061112992,2.224265785
2.993976559,-0.7284374692,2.474321697
2.994450711,-0.3602647984,2.56170044
2.993976559,0.007907872324,2.474321697
2.992961286,0.340583395,2.224265785
2.992015673,0.6268355282,1.829653174
2.991599288,0.8543239055,1.310097676
2.99156687,1.00505166,0.6911864512
2.991621946,1.059607798,9.412327377e-18
2.99156687,1.00505166,-0.6911864512
2.991599288,0.8543239055,-1.310097676
2.992015673,0.6268355282,-1.829653174
2.992961286,0.340583395,-2.224265785
2.993976559,0.007907872324,-2.474321697
3.240614534,-0.400009095,-2.73525589
3.240614534,-0.7936805895,-2.637479677
3.240614534,-1.147545615,-2.361588545
3.240614534,-1.447436396,-1.933738753
3.240614534,-1.679185153,-1.380086559
3.240614534,-1.828624111,-0.7267882215
3.240614534,-1.881585491,-0.0
3.240614534,-1.828624111,0.7267882215
3.240614534,-1.679185153,1.380086559
3.240614534,-1.447436396,1.933738753
3.240614534,-1.147545615,2.361588545
3.240614534,-0.7936805895,2.637479677
3.240614534,-0.400009095,2.73525589
3.240614534,-0.006337600468,2.637479677
3.240614534,0.3475274254,2.361588545
3.240614534,0.6474182055,1.933738753
3.240614534,0.8791669629,1.380086559
3.240614534,1.028605921,0.7267882215
3.240614534,1.081567301,1.027162637e-33
3.240614534,1.028605921,-0.7267882215
3.240614534,0.8791669629,-1.380086559
3.240614534,0.6474182055,-1.933738753
3.240614534,0.3475274254,-2.361588545
3.240614534,-0.006337600468,-2.637479677
3.764188178,-0.4417174306,-2.91308971
3.767554938,-0.8819550592,-2.802698791
3.774973361,-1.274534024,-2.496434328
3.782420657,-1.599390348,-2.031658764
3.786761574,-1.839028231,-1.443516395
3.788411007,-1.986224573,-0.7582789471
3.788671389,-2.036324448,1.865174681e-17
3.788411007,-1.986224573,0.7582789471
3.786761574,-1.839028231,1.443516395
3.782420657,-1.599390348,2.031658764
3.774973361,-1.274534024,2.496434328
3.767554938,-0.8819550592,2.802698791
3.764188178,-0.4417174306,2.91308971
3.767554938,-0.001479802063,2.802698791
3.774973361,0.3910991627,2.496434328
3.782420657,0.7159554871,2.031658764
3.786761574,0.9555933702,1.443516395
3.788411007,1.102789712,0.7582789471
3.788671389,1.152889587,-2.855769847e-18
3.788411007,1.102789712,-0.7582789471
3.786761574,0.9555933702,-1.443516395
3.782420657,0.7159554871,-2.031658764
3.774973361,0.3910991627,-2.496434328
3.767554938,-0.001479802063,-2.802698791
4.798382304,-0.5411757694,-3.151329498
4.80216991,-1.055098337,-3.031640089
4.810515636,-1.513518565,-2.699791091
4.818893843,-1.893193102,-2.196611349
4.823777375,-2.17376779,-1.560434296
4.825632988,-2.346445261,-0.8196117208
4.825925917,-2.405317344,2.098321517e-17
4.825632988,-2.346445261,0.8196117208
4.823777375,-2.17376779,1.560434296
4.818893843,-1.893193102,2.196611349
4.810515636,-1.513518565,2.699791091
4.80216991,-1.055098337,3.031640089
4.798382304,-0.5411757694,3.151329498
4.80216991,-0.02725320203,3.031640089
4.810515636,0.4311670266,2.699791091
4.818893843,0.810841563,2.196611349
4.823777375,1.091416251,1.560434296
4.825632988,1.264093722,0.8196117208
4.825925917,1.322965806,-3.212741078e-18
4.825632988,1.264093722,-0.8196117208
4.823777375,1.091416251,-1.560434296
4.818893843,0.810841563,-2.196611349
4.810515636,0.4311670266,-2.699791091
4.80216991,-0.02725320203,-3.031640089
6.128441574,-0.6598841093,-3.392571764
6.130966644,-1.25308692,-3.266605408
6.136530461,-1.78394975,-2.915087106
6.142115933,-2.22795867,-2.377588006
6.145371621,-2.562525882,-1.692015649
6.146608696,-2.772768113,-0.8896231457
6.146803982,-2.845728221,1.398881011e-17
6.146608696,-2.772768113,0.8896231457
6.145371621,-2.562525882,1.692015649
6.142115933,-2.22795867,2.377588006
6.136530461,-1.78394975,2.915087106
6.130966644,-1.25308692,3.266605408
6.128441574,-0.6598841093,3.392571764
6.130966644,-0.06668129899,3.266605408
6.136530461,0.4641815312,2.915087106
6.142115933,0.9081904515,2.377588006
6.145371621,1.242757663,1.692015649
6.146608696,1.452999894,0.8896231457
6.146803982,1.525960002,-2.141827385e-18
6.146608696,1.452999894,-0.8896231457
6.145371621,1.242757663,-1.692015649
6.142115933,0.9081904515,-2.377588006
6.136530461,0.4641815312,-2.915087106
6.130966644,-0.06668129899,-3.266605408
7.539610645,-0.7593424481,-3.579413017
7.540452335,-1.415897305,-3.449896586
7.542306941,-2.005278087,-3.085750647
7.544168764,-2.502801067,-2.523580234
7.545253994,-2.884424564,-1.799435842
7.545666352,-3.128675069,-0.947149825
7.545731448,-3.214721118,4.662936703e-18
7.545666352,-3.128675069,0.947149825
7.545253994,-2.884424564,1.799435842
7.544168764,-2.502801067,2.523580234
7.542306941,-2.005278087,3.085750647
7.540452335,-1.415897305,3.449896586
7.539610645,-0.7593424481,3.579413017
7.540452335,-0.1027875915,3.449896586
7.542306941,0.4865931904,3.085750647
7.544168764,0.9841161711,2.523580234
7.545253994,1.365739668,1.799435842
7.545666352,1.609990172,0.947149825
7.545731448,1.696036221,-7.139424618e-19
7.545666352,1.609990172,-0.947149825
7.545253994,1.365739668,-1.799435842
7.544168764,0.9841161711,-2.523580234
7.542306941,0.4865931904,-3.085750647
7.540452335,-0.1027875915,-3.449896586
8.817134176,-0.8010507837,-3.654449766
8.817134176,-1.483505989,-3.523815459
8.817134176,-2.096954086,-3.155209989
8.817134176,-2.616834308,-2.583579532
8.817134176,-3.01858589,-1.843870265
8.817134176,-3.277648067,-0.9710283618
8.817134176,-3.369460074,-0.0
8.817134176,-3.277648067,0.9710283618
8.817134176,-3.01858589,1.843870265
8.817134176,-2.616834308,2.583579532
8.817134176,-2.096954086,3.155209989
8.817134176,-1.483505989,3.523815459
8.817134176,-0.8010507837,3.654449766
8.817134176,-0.1185955782,3.523815459
8.817134176,0.4948525182,3.155209989
8.817134176,1.01473274,2.583579532
8.817134176,1.416484323,1.843870265
8.817134176,1.6755465,0.9710283618
8.817134176,1.767358507,-0.0
8.817134176,1.6755465,-0.9710283618
8.817134176,1.416484323,-1.843870265
8.817134176,1.01473274,-2.583579532
8.817134176,0.4948525182,-3.155209989
8.817134176,-0.1185955782,-3.523815459
10.43983007,-0.7859204088,-3.684854788
10.43983007,-1.481664061,-3.553133604
10.43983007,-2.107056929,-3.181461336
10.43983007,-2.637060014,-2.605074914
10.43983007,-3.046634314,-1.859211265
10.43983007,-3.310740828,-0.9791073178
10.43983007,-3.404340555,-0.0
10.43983007,-3.310740828,0.9791073178
10.43983007,-3.046634314,1.859211265
10.43983007,-2.637060014,2.605074914
10.43983007,-2.107056929,3.181461336
10.43983007,-1.481664061,3.553133604
10.43983007,-0.7859204088,3.684854788
10.43983007,-0.09017675695,3.553133604
10.43983007,0.5352161119,3.181461336
10.43983007,1.065219197,2.605074914
10.43983007,1.474793497,1.859211265
10.43983007,1.738900011,0.9791073178
10.43983007,1.832499738,-0.0
10.43983007,1.738900011,-0.9791073178
10.43983007,1.474793497,-1.859211265
10.43983007,1.065219197,-2.605074914
10.43983007,0.5352161119,-3.181461336
10.43983007,-0.09017675695,-3.553133604
12.73750167,-0.7498402839,-3.757359071
12.73750167,-1.477271769,-3.623046102
12.73750167,-2.131148326,-3.244060702
12.73750167,-2.685290546,-2.656333132
12.73750167,-3.113519018,-1.895793651
12.73750167,-3.389654335,-0.9983725205
12.73750167,-3.487517087,-0.0
12.73750167,-3.389654335,0.9983725205
12.73750167,-3.113519018,1.895793651
12.73750167,-2.685290546,2.656333132
12.73750167,-2.131148326,3.244060702
12.73750167,-1.477271769,3.623046102
12.73750167,-0.7498402839,3.757359071
12.73750167,-0.02240879852,3.623046102
12.73750167,0.6314677584,3.244060702
12.73750167,1.185609978,2.656333132
12.73750167,1.61383845,1.895793651
12.73750167,1.889973767,0.9983725205
12.73750167,1.987836519,-0.0
12.73750167,1.889973767,-0.9983725205
12.73750167,1.61383845,-1.895793651
12.73750167,1.185609978,-2.656333132
12.73750167,0.6314677584,-3.244060702
12.73750167,-0.02240879852,-3.623046102
15.27187182,-0.7067769091,-3.843896442
15.27187182,-1.472029357,-3.706490052
15.27187182,-2.159902574,-3.318776075
15.27187182,-2.742856018,-2.717512295
15.27187182,-3.193349149,-1.939456499
15.27187182,-3.483841424,-1.021366472
15.27187182,-3.586792303,-0.0
15.27187182,-3.483841424,1.021366472
15.27187182,-3.193349149,1.939456499
15.27187182,-2.742856018,2.717512295
15.27187182,-2.159902574,3.318776075
15.27187182,-1.472029357,3.706490052
15.27187182,-0.7067769091,3.843896442
15.27187182,0.05847553895,3.706490052
15.27187182,0.7463487558,3.318776075
15.27187182,1.3293022,2.717512295
15.27187182,1.779795331,1.939456499
15.27187182,2.070287606,1.021366472
15.27187182,2.173238484,-0.0
15.27187182,2.070287606,-1.021366472
15.27187182,1.779795331,-1.939456499
15.27187182,1.3293022,-2.717512295
15.27187182,0.7463487558,-3.318776075
15.27187182,0.05847553895,-3.706490052
17.60466335,-0.6706967843,-3.916400725
17.60466335,-1.467637066,-3.776402551
17.60466335,-2.183993971,-3.381375441
17.60466335,-2.79108655,-2.768770513
17.60466335,-3.260233853,-1.976038885
17.60466335,-3.562754931,-1.040631675
17.60466335,-3.669968835,-0.0
17.60466335,-3.562754931,1.040631675
17.60466335,-3.260233853,1.976038885
17.60466335,-2.79108655,2.768770513
17.60466335,-2.183993971,3.381375441
17.60466335,-1.467637066,3.776402551
17.60466335,-0.6706967843,3.916400725
17.60466335,0.1262434974,3.776402551
17.60466335,0.8426004023,3.381375441
17.60466335,1.449692981,2.768770513
17.60466335,1.918840284,1.976038885
17.60466335,2.221361362,1.040631675
17.60466335,2.328575266,-0.0
17.60466335,2.221361362,-1.040631675
17.60466335,1.918840284,-1.976038885
17.60466335,1.449692981,-2.768770513
17.60466335,0.8426004023,-3.381375441
17.60466335,0.1262434974,-3.776402551
19.29759908,-0.6555664093,-3.946805747
19.29759908,-1.465795137,-3.805720696
19.29759908,-2.194096815,-3.407626788
19.29759908,-2.811312256,-2.790265895
19.29759908,-3.288282277,-1.991379886
19.29759908,-3.595847692,-1.048710631
19.29759908,-3.704849316,-0.0
19.29759908,-3.595847692,1.048710631
19.29759908,-3.288282277,1.991379886
19.29759908,-2.811312256,2.790265895
19.29759908,-2.194096815,3.407626788
19.29759908,-1.465795137,3.805720696
19.29759908,-0.6555664093,3.946805747
19.29759908,0.1546623187,3.805720696
19.29759908,0.882963996,3.407626788
19.29759908,1.500179438,2.790265895
19.29759908,1.977149458,1.991379886
19.29759908,2.284714873,1.048710631
19.29759908,2.393716497,-0.0
19.29759908,2.284714873,-1.048710631
19.29759908,1.977149458,-1.991379886
19.29759908,1.500179438,-2.790265895
19.29759908,0.882963996,-3.407626788
19.29759908,0.1546623187,-3.805720696
20.5216351,-0.6807143667,-3.900759406
20.52171216,-1.486573449,-3.761934301
20.52157958,-2.211358875,-3.36739355
20.5213377,-2.824833933,-2.755935247
20.52108087,-3.297242112,-1.966059856
20.52087951,-3.600747716,-1.035077331
20.52079807,-3.707995249,-1.776356839e-18
20.52087951,-3.600747716,1.035077331
20.52108087,-3.297242112,1.966059856
20.5213377,-2.824833933,2.755935247
20.52157958,-2.211358875,3.36739355
20.52171216,-1.486573449,3.761934301
20.5216351,-0.6807143667,3.900759406
20.52129524,0.1240071106,3.758149057
20.52082811,0.8459078965,3.360696581
20.52041643,1.455543539,2.748073587
20.52019797,1.923985905,1.959362886
20.52013068,2.224372127,1.031292087
20.52012758,2.330355656,6.187501335e-18
20.52013068,2.224372127,-1.031292087
20.52019797,1.923985905,-1.959362886
20.52041643,1.455543539,-2.748073587
20.52082811,0.8459078965,-3.360696581
20.52129524,0.1240071106,-3.758149057
21.74110443,-0.7406825727,-3.781617491
21.74133562,-1.533897135,-3.648279198
21.74093788,-2.248139712,-3.263573077
21.74021223,-2.851159081,-2.668151005
21.73944173,-3.312144626,-1.901771974
21.73883765,-3.60604817,-1.000623446
21.73859333,-3.709262144,-5.329070518e-18
21.73883765,-3.60604817,1.000623446
21.73944173,-3.312144626,1.901771974
21.74021223,-2.851159081,2.668151005
21.74093788,-2.248139712,3.263573077
21.74133562,-1.533897135,3.648279198
21.74110443,-0.7406825727,3.781617491
21.74008484,0.04911917517,3.636923467
21.73868345,0.7547078312,3.243482168
21.73744842,1.346208955,2.644566025
21.73679303,1.795297058,1.881681065
21.73659117,2.079842457,0.9892677147
21.73658187,2.179264419,1.856250401e-17
21.73659117,2.079842457,-0.9892677147
21.73679303,1.795297058,-1.881681065
21.73744842,1.346208955,-2.644566025
21.73868345,0.7547078312,-3.243482168
21.74008484,0.04911917517,-3.636923467
22.95779527,-0.8122575282,-3.617875666
22.95814204,-1.585249324,-3.491311509
22.95754543,-2.28193131,-3.121484231
22.95645695,-2.868927877,-2.549724724
22.9553012,-3.315024329,-1.816024556
22.95439509,-3.597649627,-0.9550179984
22.95402862,-3.696393643,-7.993605777e-18
22.95439509,-3.597649627,0.9550179984
22.9553012,-3.315024329,1.816024556
22.95645695,-2.868927877,2.549724724
22.95754543,-2.28193131,3.121484231
22.95814204,-1.585249324,3.491311509
22.95779527,-0.8122575282,3.617875666
22.95626588,-0.04438495414,3.474277912
22.9541638,0.63931615,3.091347867
22.95231124,1.20903535,2.514347254
22.95132816,1.63728564,1.785888192
22.95102537,1.90587372,0.9379844017
22.95101143,1.998929718,2.784375601e-17
22.95102537,1.90587372,-0.9379844017
22.95132816,1.63728564,-1.785888192
22.95231124,1.20903535,-2.514347254
22.9541638,0.63931615,-3.091347867
22.95626588,-0.04438495414,-3.474277912
24.1734958,-0.8722257341,-3.438029591
24.17380404,-1.618113144,-3.317587355
24.17327372,-2.290225652,-2.966445872
24.17230619,-2.856780499,-2.423467956
24.17127885,-3.287915735,-1.726325914
24.17047342,-3.561452661,-0.9079300107
24.17014766,-3.657133389,-7.105427358e-18
24.17047342,-3.561452661,0.9079300107
24.17127885,-3.287915735,1.726325914
24.17230619,-2.856780499,2.423467956
24.17327372,-2.290225652,2.966445872
24.17380404,-1.618113144,3.317587355
24.1734958,-0.8722257341,3.438029591
24.17213634,-0.130888744,3.30244638
24.17026782,0.5296852029,2.939657993
24.16862111,1.08088239,2.392021316
24.16774726,1.49615437,1.699538036
24.16747811,1.757213769,0.8927890358
24.16746572,1.847838481,2.475000534e-17
24.16747811,1.757213769,-0.8927890358
24.16774726,1.49615437,-1.699538036
24.16862111,1.08088239,-2.392021316
24.17026782,0.5296852029,-2.939657993
24.17213634,-0.130888744,-3.30244638
25.38999423,-0.8973736915,-3.270574931
25.38999423,-1.609971722,-3.15366286
25.38999423,-2.250514723,-2.823776862
25.38999423,-2.793357124,-2.312192256
25.38999423,-3.212853354,-1.650184364
25.38999423,-3.483357844,-0.8690285051
25.38999423,-3.579225023,-0.0
25.38999423,-3.483357844,0.8690285051
25.38999423,-3.212853354,1.650184364
25.38999423,-2.793357124,2.312192256
25.38999423,-2.250514723,2.823776862
25.38999423,-1.609971722,3.15366286
25.38999423,-0.8973736915,3.270574931
25.38999423,-0.1847756611,3.15366286
25.38999423,0.4557673397,2.823776862
25.38999423,0.9986097406,2.312192256
25.38999423,1.418105971,1.650184364
25.38999423,1.688610461,0.8690285051
25.38999423,1.78447764,-0.0
25.38999423,1.688610461,-0.8690285051
25.38999423,1.418105971,-1.650184364
25.38999423,0.9986097406,-2.312192256
25.38999423,0.4557673397,-2.823776862
25.38999423,-0.1847756611,-3.15366286
27.00231643,-0.8296139175,-3.015572382
27.00192001,-1.503401015,-2.904994072
27.001723,-2.107344199,-2.602813739
27.00173449,-2.620714005,-2.134198352
27.00193349,-3.021522369,-1.525003341
27.00217862,-3.28274683,-0.8038379794
27.00229843,-3.376106331,5.329070518e-18
27.00217862,-3.28274683,0.8038379794
27.00193349,-3.021522369,1.525003341
27.00173449,-2.620714005,2.134198352
27.001723,-2.107344199,2.602813739
27.00192001,-1.503401015,2.904994072
27.00231643,-0.8296139175,3.015572382
27.00287829,-0.1521218399,2.91729748
27.00347226,0.4612048204,2.624581307
27.0039401,0.987039402,2.159751584
27.00416853,1.400689066,1.546770909
27.00422395,1.671996263,0.8161413875
27.00421769,1.769437268,-2.237019714e-17
27.00422395,1.671996263,-0.8161413875
27.00416853,1.400689066,-1.546770909
27.0039401,0.987039402,-2.159751584
27.00347226,0.4612048204,-2.624581307
27.00287829,-0.1521218399,-2.91729748
29.12301241,-0.6680329181,-2.616058853
29.12240113,-1.299115853,-2.518802944
29.12081575,-1.864333026,-2.252704479
29.11903609,-2.342269638,-1.842994418
29.11770682,-2.711336618,-1.314736899
29.11693203,-2.949247798,-0.6923287558
29.11668067,-3.033542734,2.664535259e-18
29.11693203,-2.949247798,0.6923287558
29.11770682,-2.711336618,1.314736899
29.11903609,-2.342269638,1.842994418
29.12081575,-1.864333026,2.252704479
29.12240113,-1.299115853,2.518802944
29.12301241,-0.6680329181,2.616058853
29.12214903,-0.03436707846,2.52732384
29.12042744,0.5373657199,2.267779911
29.11874338,1.023901048,1.860691665
29.1177902,1.401748322,1.329812331
29.11745182,1.646512345,0.7008496521
29.11740979,1.733571765,-2.070433139e-17
29.11745182,1.646512345,-0.7008496521
29.1177902,1.401748322,-1.329812331
29.11874338,1.023901048,-1.860691665
29.12042744,0.5373657199,-2.267779911
29.12214903,-0.03436707846,-2.52732384
31.33015658,-0.4751781769,-2.164994321
31.32952864,-1.061807677,-2.084294449
31.3266534,-1.587583088,-1.858485098
31.32307684,-2.028707562,-1.514203183
31.32011981,-2.362923601,-1.076719278
31.31820254,-2.574131106,-0.5658385932
31.3175201,-2.647769329,-2.664535259e-18
31.31820254,-2.574131106,0.5658385932
31.32011981,-2.362923601,1.076719278
31.32307684,-2.028707562,1.514203183
31.3266534,-1.587583088,1.858485098
31.32952864,-1.061807677,2.084294449
31.33015658,-0.4751781769,2.164994321
31.32758701,0.1110596617,2.08288113
31.3232529,0.6357911104,1.85598461
31.31918301,1.075415853,1.511267827
31.31693401,1.40793053,1.074218789
31.31617411,1.617719618,0.5644252737
31.31609945,1.690764551,-7.853367079e-18
31.31617411,1.617719618,-0.5644252737
31.31693401,1.40793053,-1.074218789
31.31918301,1.075415853,-1.511267827
31.3232529,0.6357911104,-1.85598461
31.32758701,0.1110596617,-2.08288113
33.20182335,-0.3135971775,-1.755338763
33.20139361,-0.8561679251,-1.690673563
33.19861687,-1.343196271,-1.505191615
33.19503457,-1.750711317,-1.223447371
33.19197804,-2.056910815,-0.868284717
33.18993821,-2.248667113,-0.4557052505
33.18919586,-2.315021213,-5.329070518e-18
33.18993821,-2.248667113,0.4557052505
33.19197804,-2.056910815,0.868284717
33.19503457,-1.750711317,1.223447371
33.19861687,-1.343196271,1.505191615
33.20139361,-0.8561679251,1.690673563
33.20182335,-0.3135971775,1.755338763
33.19897284,0.2267294188,1.68310854
33.19434175,0.708022064,1.491807342
33.19003794,1.10780499,1.207735399
33.18767472,1.405882477,0.8549004445
33.18688711,1.591178991,0.4481402269
33.18681559,1.654899048,3.331731488e-18
33.18688711,1.591178991,-0.4481402269
33.18767472,1.405882477,-0.8549004445
33.19003794,1.10780499,-1.207735399
33.19434175,0.708022064,-1.491807342
33.19897284,0.2267294188,-1.68310854
34.3160871,-0.2458374035,-1.480052155
34.3160871,-0.7468880382,-1.427145261
34.3160871,-1.19727446,-1.277860046
34.3160871,-1.578964442,-1.046349711
34.3160871,-1.873925758,-0.7467674572
34.3160871,-2.06412618,-0.3932664865
34.3160871,-2.131533483,-0.0
34.3160871,-2.06412618,0.3932664865
34.3160871,-1.873925758,0.7467674572
34.3160871,-1.578964442,1.046349711
34.3160871,-1.19727446,1.277860046
34.3160871,-0.7468880382,1.427145261
34.3160871,-0.2458374035,1.480052155
34.3160871,0.2552132312,1.427145261
34.3160871,0.705599653,1.277860046
34.3160871,1.087289635,1.046349711
34.3160871,1.382250951,0.7467674572
34.3160871,1.572451373,0.3932664865
34.3160871,1.639858676,-0.0
34.3160871,1.572451373,-0.3932664865
34.3160871,1.382250951,-0.7467674572
34.3160871,1.087289635,-1.046349711
34.3160871,0.705599653,-1.277860046
34.3160871,0.2552132312,-1.427145261
35.32460447,-0.1632217956,-1.247304347
35.32578285,-0.6168166767,-1.208497632
35.32970378,-1.02719188,-1.095656524
35.33445596,-1.382676423,-0.910367229
35.33839887,-1.668934711,-0.6565984588
35.34097495,-1.8609727,-0.347848963
35.34189738,-1.931131731,2.055968564e-17
35.34097495,-1.8609727,0.347848963
35.33839887,-1.668934711,0.6565984588
35.33445596,-1.382676423,0.910367229
35.32970378,-1.02719188,1.095656524
35.32578285,-0.6168166767,1.208497632
35.32460447,-0.1632217956,1.247304347
35.3273546,0.2910696785,1.210925808
35.33231801,0.7032621715,1.09995253
35.33705413,1.061275968,0.9154103656
35.33968454,1.350299356,0.660894464
35.34057924,1.544592634,0.3502771398
35.34067033,1.615684104,-7.436900643e-18
35.34057924,1.544592634,-0.3502771398
35.33968454,1.350299356,-0.660894464
35.33705413,1.061275968,-0.9154103656
35.33231801,0.7032621715,-1.09995253
35.3273546,0.2910696785,-1.210925808
36.34782293,-0.009792809412,-1.092767877
36.34956742,-0.435539254,-1.063002025
36.35235837,-0.823062163,-0.962186226
36.35522353,-1.156486437,-0.7961732429
36.35735699,-1.419206456,-0.5720944012
36.35861818,-1.591694506,-0.3021952748
36.35903286,-1.653692353,2.87835599e-17
36.35861818,-1.591694506,0.3021952748
36.35735699,-1.419206456,0.5720944012
36.35522353,-1.156486437,0.7961732429
36.35235837,-0.823062163,0.962186226
36.34956742,-0.435539254,1.063002025
36.34782293,-0.009792809412,1.092767877
36.34778436,0.4114757164,1.048153054
36.3488601,0.7876673352,0.9359149688
36.35014575,1.106060647,0.7653330714
36.35092448,1.353325057,0.5458231439
36.35122968,1.513693189,0.2873463033
36.35128231,1.570788471,1.652644587e-18
36.35122968,1.513693189,-0.2873463033
36.35092448,1.353325057,-0.5458231439
36.35014575,1.106060647,-0.7653330714
36.3488601,0.7876673352,-0.9359149688
36.34778436,0.4114757164,-1.048153054
37.35684402,0.07282279852,-0.9464258111
37.35684402,-0.3187800557,-0.9125942667
37.35684402,-0.6707856137,-0.8171331841
37.35684402,-0.9691005465,-0.6690928899
37.35684402,-1.199631525,-0.4775237102
37.35684402,-1.34828522,-0.2514759715
37.35684402,-1.400968303,-0.0
37.35684402,-1.34828522,0.2514759715
37.35684402,-1.199631525,0.4775237102
37.35684402,-0.9691005465,0.6690928899
37.35684402,-0.6707856137,0.8171331841
37.35684402,-0.3187800557,0.9125942667
37.35684402,0.07282279852,0.9464258111
37.35684402,0.4644256527,0.9125942667
37.35684402,0.8164312107,0.8171331841
37.35684402,1.114746144,0.6690928899
37.35684402,1.345277122,0.4775237102
37.35684402,1.493930817,0.2514759715
37.35684402,1.5466139,-0.0
37.35684402,1.493930817,-0.2514759715
37.35684402,1.345277122,-0.4775237102
37.35684402,1.114746144,-0.6690928899
37.35684402,0.8164312107,-0.8171331841
37.35684402,0.4644256527,-0.9125942667
38.36185581,0.05394281372,-0.7460227806
38.36031541,-0.2463543655,-0.7109139877
38.3592081,-0.5126975172,-0.631875572
38.35855602,-0.737205632,-0.5149777382
38.35834,-0.9113921109,-0.3663710696
38.3583758,-1.024347998,-0.1925276645
38.35843785,-1.064558748,3.289549703e-17
38.3583758,-1.024347998,0.1925276645
38.35834,-0.9113921109,0.3663710696
38.35855602,-0.737205632,0.5149777382
38.3592081,-0.5126975172,0.631875572
38.36031541,-0.2463543655,0.7109139877
38.36185581,0.05394281372,0.7460227806
38.36374066,0.3606749466,0.7323314009
38.36561528,0.6433380119,0.6697679184
38.3670585,0.8895735791,0.5594600579
38.36777381,1.086210935,0.404263416
38.36796333,1.21683024,0.2139450777
38.36795389,1.264199369,1.928085352e-17
38.36796333,1.21683024,-0.2139450777
38.36777381,1.086210935,-0.404263416
38.3670585,0.8895735791,-0.5594600579
38.36561528,0.6433380119,-0.6697679184
38.36374066,0.3606749466,-0.7323314009
39.29038722,0.0188799848,-0.445692131
39.28961702,-0.1337055458,-0.4256917999
39.28906337,-0.2706903051,-0.3789992983
39.28873732,-0.3866762564,-0.3088964936
39.28862932,-0.4762577521,-0.2190006261
39.28864722,-0.5339986991,-0.1142704269
39.28867824,-0.5544553935,1.027984282e-16
39.28864722,-0.5339986991,0.1142704269
39.28862932,-0.4762577521,0.2190006261
39.28873732,-0.3866762564,0.3088964936
39.28906337,-0.2706903051,0.3789992983
39.28961702,-0.1337055458,0.4256917999
39.29038722,0.0188799848,0.445692131
39.29132964,0.1746829923,0.4364005065
39.29226696,0.3198277083,0.3979454715
39.29298857,0.4466773859,0.3311376535
39.29334622,0.5474843202,0.2379467993
39.29344098,0.6140569759,0.1249791335
39.29343626,0.6380928596,4.930389686e-17
39.29344098,0.6140569759,-0.1249791335
39.29334622,0.5474843202,-0.2379467993
39.29298857,0.4466773859,-0.3311376535
39.29226696,0.3198277083,-0.3979454715
39.29132964,0.1746829923,-0.4364005065
39.98955097,0.0,-0.0
40.31063191,0.5116229672,-0.0
40.31063191,0.3898970868,-0.0
42.34416265,0.5116229672,-1.176489661
40.31063191,0.2681712065,-0.0
42.20200296,0.4919546789,-1.176489661
40.2142843,0.2598042692,-0.0
41.97348985,0.4614775056,-1.176489661
40.05946345,0.2469609079,-0.0
41.62216894,0.4172324955,-1.176489661
39.82154116,0.228792355,-0.0
41.11741386,0.3589979824,-1.176489661
39.47987705,0.2064095619,-0.0
40.45853112,0.292896861,-1.176489661
39.03415653,0.1851201476,-0.0
39.69824526,0.2336964154,-1.176489661
38.52037885,0.1749640768,-0.0
38.00665607,0.186404562,-0.0
38.93639787,0.2008916933,-1.176489661
37.56201635,0.2230478194,-0.0
38.27433164,0.2069166169,-1.176489661
37.22449908,0.2798063867,-0.0
37.76813674,0.2490793504,-1.176489661
36.99643101,0.3490512207,-0.0
37.42068404,0.3159968583,-1.176489661
36.8634125,0.427744281,-0.0
37.20730167,0.4012690103,-1.176489661
36.821,0.5116229672,-0.0
37.12526091,0.5116229672,-1.176489661
37.20730167,0.6219769241,-1.176489661
36.8634125,0.5955016534,-0.0
37.42068404,0.7072490761,-1.176489661
36.99643101,0.6741947137,-0.0
37.76813674,0.774166584,-1.176489661
37.22449908,0.7434395477,-0.0
38.27433164,0.8163293175,-1.176489661
37.56201635,0.800198115,-0.0
38.93639787,0.8223542411,-1.176489661
38.00665607,0.8368413724,-0.0
39.69824526,0.789549519,-1.176489661
38.52037885,0.8482818576,-0.0
39.03415653,0.8381257868,-0.0
40.45853112,0.7303490734,-1.176489661
39.47987705,0.8168363725,-0.0
41.11741386,0.664247952,-1.176489661
39.82154116,0.7944535794,-0.0
41.62216894,0.6060134389,-1.176489661
40.05946345,0.7762850265,-0.0
41.97348985,0.5617684289,-1.176489661
40.2142843,0.7634416652,-0.0
42.20200296,0.5312912555,-1.176489661
40.31063191,0.755074728,-0.0
40.31063191,0.6333488476,-0.0
42.00076226,0.4955984025,-4.005914763
42.11658562,0.5116229672,-4.005914763
41.81458322,0.4707673939,-4.005914763
41.5283476,0.4347191616,-4.005914763
41.11710285,0.3872731049,-4.005914763
