x,y,z
7.196871885,0.2152996137,-0.4212413843
7.215013472,0.2173913043,-0.4212413843
7.16771625,0.2120587968,-0.4212413843
7.122904644,0.207354621,-0.4212413843
7.05854677,0.201163646,-0.4212413843
6.974578102,0.1941347388,-0.4212413843
6.877744954,0.1878299045,-0.4212413843
6.780773846,0.1843008446,-0.4212413843
6.696521483,0.1848448006,-0.4212413843
6.632024176,0.1891646533,-0.4212413843
6.587517097,0.1960510793,-0.4212413843
6.559595822,0.2048498313,-0.4212413843
6.547551653,0.2173913043,-0.4212413843
6.559595822,0.2299327774,-0.4212413843
6.587517097,0.2387315294,-0.4212413843
6.632024176,0.2456179554,-0.4212413843
6.696521483,0.2499378081,-0.4212413843
6.780773846,0.2504817641,-0.4212413843
6.877744954,0.2469527042,-0.4212413843
6.974578102,0.2406478699,-0.4212413843
7.05854677,0.2336189627,-0.4212413843
7.122904644,0.2274279877,-0.4212413843
7.16771625,0.2227238119,-0.4212413843
7.196871885,0.219482995,-0.4212413843
7.222283807,0.2154789014,-0.561655179
7.238870401,0.2173913043,-0.561655179
7.195627227,0.2125158689,-0.561655179
7.154656615,0.2082149082,-0.561655179
7.095815131,0.2025545881,-0.561655179
7.019043777,0.1961281587,-0.561655179
6.930510613,0.1903637388,-0.561655179
6.841851314,0.1871371697,-0.561655179
6.764820583,0.1876345009,-0.561655179
6.705851617,0.1915840805,-0.561655179
6.66515943,0.1978802414,-0.561655179
6.639631407,0.2059248147,-0.561655179
6.628619595,0.2173913043,-0.561655179
6.639631407,0.228857794,-0.561655179
6.66515943,0.2369023673,-0.561655179
6.705851617,0.2431985281,-0.561655179
6.764820583,0.2471481078,-0.561655179
6.841851314,0.247645439,-0.561655179
6.930510613,0.2444188699,-0.561655179
7.019043777,0.23865445,-0.561655179
7.095815131,0.2322280206,-0.561655179
7.154656615,0.2265677005,-0.561655179
7.195627227,0.2222667398,-0.561655179
7.222283807,0.2193037072,-0.561655179
7.247695729,0.2156581892,-0.7020689738
7.26272733,0.2173913043,-0.7020689738
7.223538203,0.212972941,-0.7020689738
7.186408587,0.2090751953,-0.7020689738
7.133083492,0.2039455303,-0.7020689738
7.063509452,0.1981215786,-0.7020689738
6.983276272,0.192897573,-0.7020689738
6.902928783,0.1899734948,-0.7020689738
6.833119682,0.1904242012,-0.7020689738
6.779679057,0.1940035078,-0.7020689738
6.742801762,0.1997094036,-0.7020689738
6.719666992,0.2069997981,-0.7020689738
6.709687537,0.2173913043,-0.7020689738
6.719666992,0.2277828106,-0.7020689738
6.742801762,0.2350732051,-0.7020689738
6.779679057,0.2407791009,-0.7020689738
6.833119682,0.2443584075,-0.7020689738
6.902928783,0.2448091138,-0.7020689738
6.983276272,0.2418850356,-0.7020689738
7.063509452,0.2366610301,-0.7020689738
7.133083492,0.2308370784,-0.7020689738
7.186408587,0.2257074134,-0.7020689738
7.223538203,0.2218096677,-0.7020689738
7.247695729,0.2191244195,-0.7020689738
7.273107652,0.215837477,-0.8424827685
7.286584259,0.2173913043,-0.8424827685
7.25144918,0.213430013,-0.8424827685
7.218160558,0.2099354825,-0.8424827685
7.170351853,0.2053364724,-0.8424827685
7.107975127,0.2001149985,-0.8424827685
7.036041932,0.1954314073,-0.8424827685
6.964006251,0.19280982,-0.8424827685
6.901418782,0.1932139016,-0.8424827685
6.853506497,0.196422935,-0.8424827685
6.820444095,0.2015385657,-0.8424827685
6.799702577,0.2080747815,-0.8424827685
6.790755479,0.2173913043,-0.8424827685
6.799702577,0.2267078272,-0.8424827685
6.820444095,0.233244043,-0.8424827685
6.853506497,0.2383596737,-0.8424827685
6.901418782,0.2415687071,-0.8424827685
6.964006251,0.2419727887,-0.8424827685
7.036041932,0.2393512014,-0.8424827685
7.107975127,0.2346676102,-0.8424827685
7.170351853,0.2294461363,-0.8424827685
7.218160558,0.2248471262,-0.8424827685
7.25144918,0.2213525957,-0.8424827685
7.273107652,0.2189451317,-0.8424827685
7.298519574,0.2160167648,-0.9828965633
7.310441188,0.2173913043,-0.9828965633
7.279360157,0.2138870851,-0.9828965633
7.24991253,0.2107957696,-0.9828965633
7.207620213,0.2067274145,-0.9828965633
7.152440802,0.2021084184,-0.9828965633
7.088807591,0.1979652416,-0.9828965633
7.02508372,0.1956461451,-0.9828965633
6.969717882,0.1960036019,-0.9828965633
6.927333937,0.1988423622,-0.9828965633
6.898086428,0.2033677279,-0.9828965633
6.879738161,0.2091497649,-0.9828965633
6.871823421,0.2173913043,-0.9828965633
6.879738161,0.2256328438,-0.9828965633
6.898086428,0.2314148808,-0.9828965633
6.927333937,0.2359402465,-0.9828965633
6.969717882,0.2387790068,-0.9828965633
7.02508372,0.2391364636,-0.9828965633
7.088807591,0.2368173671,-0.9828965633
7.152440802,0.2326741903,-0.9828965633
7.207620213,0.2280551941,-0.9828965633
7.24991253,0.2239868391,-0.9828965633
7.279360157,0.2208955236,-0.9828965633
7.298519574,0.2187658439,-0.9828965633
7.323931496,0.2161960525,-1.123310358
7.334298118,0.2173913043,-1.123310358
7.307271134,0.2143441572,-1.123310358
7.281664501,0.2116560567,-1.123310358
7.244888574,0.2081183567,-1.123310358
7.196906477,0.2041018383,-1.123310358
7.14157325,0.2004990759,-1.123310358
7.086161188,0.1984824702,-1.123310358
7.038016981,0.1987933022,-1.123310358
7.001161377,0.2012617895,-1.123310358
6.97572876,0.20519689,-1.123310358
6.959773746,0.2102247483,-1.123310358
6.952891364,0.2173913043,-1.123310358
6.959773746,0.2245578604,-1.123310358
6.97572876,0.2295857187,-1.123310358
7.001161377,0.2335208192,-1.123310358
7.038016981,0.2359893065,-1.123310358
7.086161188,0.2363001385,-1.123310358
7.14157325,0.2342835328,-1.123310358
7.196906477,0.2306807704,-1.123310358
7.244888574,0.226664252,-1.123310358
7.281664501,0.223126552,-1.123310358
7.307271134,0.2204384515,-1.123310358
7.323931496,0.2185865562,-1.123310358
7.349343419,0.2163753403,-1.263724153
7.358155047,0.2173913043,-1.263724153
7.33518211,0.2148012293,-1.263724153
7.313416473,0.2125163439,-1.263724153
7.282156935,0.2095092988,-1.263724153
7.241372153,0.2060952582,-1.263724153
7.194338909,0.2030329101,-1.263724153
7.147238657,0.2013187953,-1.263724153
7.106316081,0.2015830025,-1.263724153
7.074988817,0.2036812167,-1.263724153
7.053371093,0.2070260522,-1.263724153
7.039809331,0.2112997317,-1.263724153
7.033959306,0.2173913043,-1.263724153
7.039809331,0.223482877,-1.263724153
7.053371093,0.2277565565,-1.263724153
7.074988817,0.231101392,-1.263724153
7.106316081,0.2331996062,-1.263724153
7.147238657,0.2334638134,-1.263724153
7.194338909,0.2317496986,-1.263724153
7.241372153,0.2286873504,-1.263724153
7.282156935,0.2252733099,-1.263724153
7.313416473,0.2222662648,-1.263724153
7.33518211,0.2199813794,-1.263724153
7.349343419,0.2184072684,-1.263724153
7.374755341,0.2165546281,-1.404137948
7.382011976,0.2173913043,-1.404137948
7.363093087,0.2152583013,-1.404137948
7.345168444,0.213376631,-1.404137948
7.319425295,0.210900241,-1.404137948
7.285837828,0.2080886781,-1.404137948
7.247104569,0.2055667444,-1.404137948
7.208316125,0.2041551205,-1.404137948
7.17461518,0.2043727028,-1.404137948
7.148816258,0.2061006439,-1.404137948
7.131013426,0.2088552143,-1.404137948
7.119844916,0.2123747151,-1.404137948
7.115027248,0.2173913043,-1.404137948
7.119844916,0.2224078936,-1.404137948
7.131013426,0.2259273944,-1.404137948
7.148816258,0.2286819648,-1.404137948
7.17461518,0.2304099059,-1.404137948
7.208316125,0.2306274882,-1.404137948
7.247104569,0.2292158643,-1.404137948
7.285837828,0.2266939305,-1.404137948
7.319425295,0.2238823677,-1.404137948
7.345168444,0.2214059777,-1.404137948
7.363093087,0.2195243074,-1.404137948
7.374755341,0.2182279806,-1.404137948
7.400167263,0.2167339159,-1.544551742
7.405868905,0.2173913043,-1.544551742
7.391004064,0.2157153734,-1.544551742
7.376920416,0.2142369182,-1.544551742
7.356693656,0.2122911831,-1.544551742
7.330303503,0.210082098,-1.544551742
7.299870228,0.2081005787,-1.544551742
7.269393594,0.2069914456,-1.544551742
7.24291428,0.2071624032,-1.544551742
7.222643698,0.2085200712,-1.544551742
7.208655759,0.2106843765,-1.544551742
7.199880501,0.2134496985,-1.544551742
7.19609519,0.2173913043,-1.544551742
7.199880501,0.2213329102,-1.544551742
7.208655759,0.2240982322,-1.544551742
7.222643698,0.2262625375,-1.544551742
7.24291428,0.2276202055,-1.544551742
7.269393594,0.2277911631,-1.544551742
7.299870228,0.22668203,-1.544551742
7.330303503,0.2247005106,-1.544551742
7.356693656,0.2224914256,-1.544551742
7.376920416,0.2205456905,-1.544551742
7.391004064,0.2190672353,-1.544551742
7.400167263,0.2180486928,-1.544551742
7.400255633,0.2169271842,-1.545006815
7.391242199,0.2162088089,-1.545707948
7.377412036,0.2151680155,-1.546714125
7.357613539,0.2138029552,-1.548005096
7.331846673,0.2122586215,-1.549416235
7.302145299,0.2108778065,-1.550605897
7.272277093,0.2101060554,-1.55118042
7.246025596,0.2102235163,-1.550949439
7.225521563,0.2111669085,-1.55002609
7.210926214,0.2126765304,-1.548658214
7.201251953,0.214613957,-1.546957993
7.201251953,0.2201686517,-1.546957993
7.210926214,0.2221060783,-1.548658214
7.225521563,0.2236157002,-1.55002609
7.246025596,0.2245590924,-1.550949439
7.272277093,0.2246765533,-1.55118042
7.302145299,0.2239048022,-1.550605897
7.331846673,0.2225239872,-1.549416235
7.357613539,0.2209796535,-1.548005096
7.377412036,0.2196145932,-1.546714125
7.391242199,0.2185737998,-1.545707948
7.400255633,0.2178554245,-1.545006815
7.400292232,0.2173913043,-1.545195288
7.391340787,0.2173913043,-1.546186632
7.377615443,0.2173913043,-1.547608821
7.357993748,0.2173913043,-1.549432457
7.332483779,0.2173913043,-1.551424576
7.303083678,0.2173913043,-1.553102999
7.273465864,0.2173913043,-1.553913206
7.247308531,0.2173913043,-1.553587494
7.22670913,0.2173913043,-1.552285109
7.211864175,0.2173913043,-1.550354661
7.201819302,0.2173913043,-1.547953422
7.167299614,0.2173913043,0.1404137948
7.14604804,0.2149410381,0.1404137948
7.111894297,0.2111446527,0.1404137948
7.0594007,0.2056340468,0.1404137948
6.984010049,0.1983817617,0.1404137948
6.885646752,0.190147899,0.1404137948
6.772213636,0.182762236,0.1404137948
6.658618909,0.1786281944,0.1404137948
6.559923284,0.1792653999,0.1404137948
6.484369296,0.1843257989,0.1404137948
6.432232432,0.192392755,0.1404137948
6.399524653,0.2026998645,0.1404137948
6.385415768,0.2173913043,0.1404137948
6.399524653,0.2320827442,0.1404137948
6.432232432,0.2423898537,0.1404137948
6.484369296,0.2504568098,0.1404137948
6.559923284,0.2555172087,0.1404137948
6.658618909,0.2561544143,0.1404137948
6.772213636,0.2520203727,0.1404137948
6.885646752,0.2446347097,0.1404137948
6.984010049,0.236400847,0.1404137948
7.0594007,0.2291485619,0.1404137948
7.111894297,0.223637956,0.1404137948
7.14604804,0.2198415706,0.1404137948
7.191156543,0.2173913043,0.2808275895
7.171459963,0.2151203259,0.2808275895
7.139805273,0.2116017247,0.2808275895
7.091152672,0.2064943339,0.2808275895
7.02127841,0.1997727038,0.2808275895
6.930112427,0.1921413189,0.2808275895
6.824979295,0.1852960702,0.2808275895
6.719696378,0.1814645195,0.2808275895
6.628222384,0.1820551003,0.2808275895
6.558196736,0.1867452261,0.2808275895
6.509874764,0.1942219171,0.2808275895
6.479560237,0.2037748479,0.2808275895
6.46648371,0.2173913043,0.2808275895
6.479560237,0.2310077608,0.2808275895
6.509874764,0.2405606916,0.2808275895
6.558196736,0.2480373826,0.2808275895
6.628222384,0.2527275084,0.2808275895
6.719696378,0.2533180892,0.2808275895
6.824979295,0.2494865385,0.2808275895
6.930112427,0.2426412898,0.2808275895
7.02127841,0.2350099049,0.2808275895
7.091152672,0.2282882748,0.2808275895
7.139805273,0.223180884,0.2808275895
7.171459963,0.2196622828,0.2808275895
7.215013472,0.2173913043,0.4212413843
7.196871885,0.2152996137,0.4212413843
7.16771625,0.2120587968,0.4212413843
7.122904644,0.207354621,0.4212413843
7.05854677,0.201163646,0.4212413843
6.974578102,0.1941347388,0.4212413843
6.877744954,0.1878299045,0.4212413843
6.780773846,0.1843008446,0.4212413843
6.696521483,0.1848448006,0.4212413843
6.632024176,0.1891646533,0.4212413843
6.587517097,0.1960510793,0.4212413843
6.559595822,0.2048498313,0.4212413843
6.547551653,0.2173913043,0.4212413843
6.559595822,0.2299327774,0.4212413843
6.587517097,0.2387315294,0.4212413843
6.632024176,0.2456179554,0.4212413843
6.696521483,0.2499378081,0.4212413843
6.780773846,0.2504817641,0.4212413843
6.877744954,0.2469527042,0.4212413843
6.974578102,0.2406478699,0.4212413843
7.05854677,0.2336189627,0.4212413843
7.122904644,0.2274279877,0.4212413843
7.16771625,0.2227238119,0.4212413843
7.196871885,0.219482995,0.4212413843
7.238870401,0.2173913043,0.561655179
7.222283807,0.2154789014,0.561655179
7.195627227,0.2125158689,0.561655179
7.154656615,0.2082149082,0.561655179
7.095815131,0.2025545881,0.561655179
7.019043777,0.1961281587,0.561655179
6.930510613,0.1903637388,0.561655179
6.841851314,0.1871371697,0.561655179
6.764820583,0.1876345009,0.561655179
6.705851617,0.1915840805,0.561655179
6.66515943,0.1978802414,0.561655179
6.639631407,0.2059248147,0.561655179
6.628619595,0.2173913043,0.561655179
6.639631407,0.228857794,0.561655179
6.66515943,0.2369023673,0.561655179
6.705851617,0.2431985281,0.561655179
6.764820583,0.2471481078,0.561655179
6.841851314,0.247645439,0.561655179
6.930510613,0.2444188699,0.561655179
7.019043777,0.23865445,0.561655179
7.095815131,0.2322280206,0.561655179
7.154656615,0.2265677005,0.561655179
7.195627227,0.2222667398,0.561655179
7.222283807,0.2193037072,0.561655179
7.26272733,0.2173913043,0.7020689738
7.247695729,0.2156581892,0.7020689738
7.223538203,0.212972941,0.7020689738
7.186408587,0.2090751953,0.7020689738
7.133083492,0.2039455303,0.7020689738
7.063509452,0.1981215786,0.7020689738
6.983276272,0.192897573,0.7020689738
6.902928783,0.1899734948,0.7020689738
6.833119682,0.1904242012,0.7020689738
6.779679057,0.1940035078,0.7020689738
6.742801762,0.1997094036,0.7020689738
6.719666992,0.2069997981,0.7020689738
6.709687537,0.2173913043,0.7020689738
6.719666992,0.2277828106,0.7020689738
6.742801762,0.2350732051,0.7020689738
6.779679057,0.2407791009,0.7020689738
6.833119682,0.2443584075,0.7020689738
6.902928783,0.2448091138,0.7020689738
6.983276272,0.2418850356,0.7020689738
7.063509452,0.2366610301,0.7020689738
7.133083492,0.2308370784,0.7020689738
7.186408587,0.2257074134,0.7020689738
7.223538203,0.2218096677,0.7020689738
7.247695729,0.2191244195,0.7020689738
7.286584259,0.2173913043,0.8424827685
7.273107652,0.215837477,0.8424827685
7.25144918,0.213430013,0.8424827685
7.218160558,0.2099354825,0.8424827685
7.170351853,0.2053364724,0.8424827685
7.107975127,0.2001149985,0.8424827685
7.036041932,0.1954314073,0.8424827685
6.964006251,0.19280982,0.8424827685
6.901418782,0.1932139016,0.8424827685
6.853506497,0.196422935,0.8424827685
6.820444095,0.2015385657,0.8424827685
6.799702577,0.2080747815,0.8424827685
6.790755479,0.2173913043,0.8424827685
6.799702577,0.2267078272,0.8424827685
6.820444095,0.233244043,0.8424827685
6.853506497,0.2383596737,0.8424827685
6.901418782,0.2415687071,0.8424827685
6.964006251,0.2419727887,0.8424827685
7.036041932,0.2393512014,0.8424827685
7.107975127,0.2346676102,0.8424827685
7.170351853,0.2294461363,0.8424827685
7.218160558,0.2248471262,0.8424827685
7.25144918,0.2213525957,0.8424827685
7.273107652,0.2189451317,0.8424827685
7.310441188,0.2173913043,0.9828965633
7.298519574,0.2160167648,0.9828965633
7.279360157,0.2138870851,0.9828965633
7.24991253,0.2107957696,0.9828965633
7.207620213,0.2067274145,0.9828965633
7.152440802,0.2021084184,0.9828965633
7.088807591,0.1979652416,0.9828965633
7.02508372,0.1956461451,0.9828965633
6.969717882,0.1960036019,0.9828965633
6.927333937,0.1988423622,0.9828965633
6.898086428,0.2033677279,0.9828965633
6.879738161,0.2091497649,0.9828965633
6.871823421,0.2173913043,0.9828965633
6.879738161,0.2256328438,0.9828965633
6.898086428,0.2314148808,0.9828965633
6.927333937,0.2359402465,0.9828965633
6.969717882,0.2387790068,0.9828965633
7.02508372,0.2391364636,0.9828965633
7.088807591,0.2368173671,0.9828965633
7.152440802,0.2326741903,0.9828965633
7.207620213,0.2280551941,0.9828965633
7.24991253,0.2239868391,0.9828965633
7.279360157,0.2208955236,0.9828965633
7.298519574,0.2187658439,0.9828965633
7.334298118,0.2173913043,1.123310358
7.323931496,0.2161960525,1.123310358
7.307271134,0.2143441572,1.123310358
7.281664501,0.2116560567,1.123310358
7.244888574,0.2081183567,1.123310358
7.196906477,0.2041018383,1.123310358
7.14157325,0.2004990759,1.123310358
7.086161188,0.1984824702,1.123310358
7.038016981,0.1987933022,1.123310358
7.001161377,0.2012617895,1.123310358
6.97572876,0.20519689,1.123310358
6.959773746,0.2102247483,1.123310358
6.952891364,0.2173913043,1.123310358
6.959773746,0.2245578604,1.123310358
6.97572876,0.2295857187,1.123310358
7.001161377,0.2335208192,1.123310358
7.038016981,0.2359893065,1.123310358
7.086161188,0.2363001385,1.123310358
7.14157325,0.2342835328,1.123310358
7.196906477,0.2306807704,1.123310358
7.244888574,0.226664252,1.123310358
7.281664501,0.223126552,1.123310358
7.307271134,0.2204384515,1.123310358
7.323931496,0.2185865562,1.123310358
7.358155047,0.2173913043,1.263724153
7.349343419,0.2163753403,1.263724153
7.33518211,0.2148012293,1.263724153
7.313416473,0.2125163439,1.263724153
7.282156935,0.2095092988,1.263724153
7.241372153,0.2060952582,1.263724153
7.194338909,0.2030329101,1.263724153
7.147238657,0.2013187953,1.263724153
7.106316081,0.2015830025,1.263724153
7.074988817,0.2036812167,1.263724153
7.053371093,0.2070260522,1.263724153
7.039809331,0.2112997317,1.263724153
7.033959306,0.2173913043,1.263724153
7.039809331,0.223482877,1.263724153
7.053371093,0.2277565565,1.263724153
7.074988817,0.231101392,1.263724153
7.106316081,0.2331996062,1.263724153
7.147238657,0.2334638134,1.263724153
7.194338909,0.2317496986,1.263724153
7.241372153,0.2286873504,1.263724153
7.282156935,0.2252733099,1.263724153
7.313416473,0.2222662648,1.263724153
7.33518211,0.2199813794,1.263724153
7.349343419,0.2184072684,1.263724153
7.382011976,0.2173913043,1.404137948
7.374755341,0.2165546281,1.404137948
7.363093087,0.2152583013,1.404137948
7.345168444,0.213376631,1.404137948
7.319425295,0.210900241,1.404137948
7.285837828,0.2080886781,1.404137948
7.247104569,0.2055667444,1.404137948
7.208316125,0.2041551205,1.404137948
7.17461518,0.2043727028,1.404137948
7.148816258,0.2061006439,1.404137948
7.131013426,0.2088552143,1.404137948
7.119844916,0.2123747151,1.404137948
7.115027248,0.2173913043,1.404137948
7.119844916,0.2224078936,1.404137948
7.131013426,0.2259273944,1.404137948
7.148816258,0.2286819648,1.404137948
7.17461518,0.2304099059,1.404137948
7.208316125,0.2306274882,1.404137948
7.247104569,0.2292158643,1.404137948
7.285837828,0.2266939305,1.404137948
7.319425295,0.2238823677,1.404137948
7.345168444,0.2214059777,1.404137948
7.363093087,0.2195243074,1.404137948
7.374755341,0.2182279806,1.404137948
7.405868905,0.2173913043,1.544551742
7.400167263,0.2167339159,1.544551742
7.391004064,0.2157153734,1.544551742
7.376920416,0.2142369182,1.544551742
7.356693656,0.2122911831,1.544551742
7.330303503,0.210082098,1.544551742
7.299870228,0.2081005787,1.544551742
7.269393594,0.2069914456,1.544551742
7.24291428,0.2071624032,1.544551742
7.222643698,0.2085200712,1.544551742
7.208655759,0.2106843765,1.544551742
7.199880501,0.2134496985,1.544551742
7.19609519,0.2173913043,1.544551742
7.199880501,0.2213329102,1.544551742
7.208655759,0.2240982322,1.544551742
7.222643698,0.2262625375,1.544551742
7.24291428,0.2276202055,1.544551742
7.269393594,0.2277911631,1.544551742
7.299870228,0.22668203,1.544551742
7.330303503,0.2247005106,1.544551742
7.356693656,0.2224914256,1.544551742
7.376920416,0.2205456905,1.544551742
7.391004064,0.2190672353,1.544551742
7.400167263,0.2180486928,1.544551742
7.400255633,0.2169271842,1.545006815
7.391242199,0.2162088089,1.545707948
7.377412036,0.2151680155,1.546714125
7.357613539,0.2138029552,1.548005096
7.331846673,0.2122586215,1.549416235
7.302145299,0.2108778065,1.550605897
7.272277093,0.2101060554,1.55118042
7.246025596,0.2102235163,1.550949439
7.225521563,0.2111669085,1.55002609
7.210926214,0.2126765304,1.548658214
7.201251953,0.214613957,1.546957993
7.201251953,0.2201686517,1.546957993
7.210926214,0.2221060783,1.548658214
7.225521563,0.2236157002,1.55002609
7.246025596,0.2245590924,1.550949439
7.272277093,0.2246765533,1.55118042
7.302145299,0.2239048022,1.550605897
7.331846673,0.2225239872,1.549416235
7.357613539,0.2209796535,1.548005096
7.377412036,0.2196145932,1.546714125
7.391242199,0.2185737998,1.545707948
7.400255633,0.2178554245,1.545006815
7.400292232,0.2173913043,1.545195288
7.391340787,0.2173913043,1.546186632
7.377615443,0.2173913043,1.547608821
7.357993748,0.2173913043,1.549432457
7.332483779,0.2173913043,1.551424576
7.303083678,0.2173913043,1.553102999
7.273465864,0.2173913043,1.553913206
7.247308531,0.2173913043,1.553587494
7.22670913,0.2173913043,1.552285109
7.211864175,0.2173913043,1.550354661
7.201819302,0.2173913043,1.547953422
7.30221188,0.3,-0.0
7.272097215,0.3,2.348810057e-16
7.272097215,0.3,-0.001736050975
7.223593334,0.3,-0.004431487249
7.223593334,0.3,2.268765105e-16
7.148911581,0.3,-0.008349946682
7.148911581,0.3,2.712099406e-17
7.041544164,0.3,-0.01350922331
7.041544164,0.3,2.545381399e-17
6.901474967,0.3,-0.01935875101
6.901474967,0.3,1.418626616e-17
6.740193302,0.3,-0.02457996329
6.740193302,0.3,8.855114195e-18
6.579157216,0.3,7.853615785e-19
6.579157216,0.3,-0.02745587066
6.439801031,0.3,-4.91284379e-18
6.439801031,0.3,-0.02692885132
6.333600242,0.3,-1.098122107e-17
6.333600242,0.3,-0.02328436345
6.260652598,0.3,-5.093667647e-17
6.260652598,0.3,-0.01755016989
6.215115906,0.3,-7.983729738e-17
6.215115906,0.3,-0.01027340411
6.195652174,0.3,-0.0
6.215115906,0.3,0.01027340411
6.260652598,0.3,0.01755016989
6.333600242,0.3,0.02328436345
6.439801031,0.3,0.02692885132
6.579157216,0.3,0.02745587066
6.740193302,0.3,0.02457996329
6.901474967,0.3,0.01935875101
7.041544164,0.3,0.01350922331
7.148911581,0.3,0.008349946682
7.223593334,0.3,0.004431487249
7.272097215,0.3,0.001736050975
7.272097215,0.3,-0.00347210195
7.223593334,0.3,-0.008862974497
7.148911581,0.3,-0.01669989336
7.041544164,0.3,-0.02701844662
6.901474967,0.3,-0.03871750201
6.740193302,0.3,-0.04915992658
6.579157216,0.3,-0.05491174132
6.439801031,0.3,-0.05385770264
6.333600242,0.3,-0.0465687269
6.260652598,0.3,-0.03510033978
6.215115906,0.3,-0.02054680821
6.215115906,0.3,0.02054680821
6.260652598,0.3,0.03510033978
6.333600242,0.3,0.0465687269
6.439801031,0.3,0.05385770264
6.579157216,0.3,0.05491174132
6.740193302,0.3,0.04915992658
6.901474967,0.3,0.03871750201
7.041544164,0.3,0.02701844662
7.148911581,0.3,0.01669989336
7.223593334,0.3,0.008862974497
7.272097215,0.3,0.00347210195
7.27921039,0.5919890063,-0.002951286658
7.304807856,0.5919890063,-1.787917009e-17
7.237982091,0.5919890063,-0.007533528323
7.174502602,0.5919890063,-0.01419490936
7.083240297,0.5919890063,-0.02296567963
6.964181479,0.5919890063,-0.03290987671
6.827092064,0.5919890063,-0.04178593759
6.690211391,0.5919890063,-0.04667498012
6.571758634,0.5919890063,-0.04577904724
6.481487963,0.5919890063,-0.03958341787
6.419482466,0.5919890063,-0.02983528881
6.380776278,0.5919890063,-0.01746478698
6.364232105,0.5919890063,-1.787917009e-17
6.380776278,0.5919890063,0.01746478698
6.419482466,0.5919890063,0.02983528881
6.481487963,0.5919890063,0.03958341787
6.571758634,0.5919890063,0.04577904724
6.690211391,0.5919890063,0.04667498012
6.827092064,0.5919890063,0.04178593759
6.964181479,0.5919890063,0.03290987671
7.083240297,0.5919890063,0.02296567963
7.174502602,0.5919890063,0.01419490936
7.237982091,0.5919890063,0.007533528323
7.27921039,0.5919890063,0.002951286658
7.286323565,0.8839780125,-0.002430471365
7.307403831,0.8839780125,-3.575834019e-17
7.252370849,0.8839780125,-0.006204082148
7.200093622,0.8839780125,-0.01168992535
7.12493643,0.8839780125,-0.01891291264
7.026887992,0.8839780125,-0.02710225141
6.913990826,0.8839780125,-0.0344119486
6.801265566,0.8839780125,-0.03843821892
6.703716237,0.8839780125,-0.03770039185
6.629375684,0.8839780125,-0.03259810883
6.578312334,0.8839780125,-0.02457023784
6.546436649,0.8839780125,-0.01438276575
6.532812037,0.8839780125,-3.575834019e-17
6.546436649,0.8839780125,0.01438276575
6.578312334,0.8839780125,0.02457023784
6.629375684,0.8839780125,0.03259810883
6.703716237,0.8839780125,0.03770039185
6.801265566,0.8839780125,0.03843821892
6.913990826,0.8839780125,0.0344119486
7.026887992,0.8839780125,0.02710225141
7.12493643,0.8839780125,0.01891291264
7.200093622,0.8839780125,0.01168992535
7.252370849,0.8839780125,0.006204082148
7.286323565,0.8839780125,0.002430471365
7.293436741,1.175967019,-0.001909656073
7.309999807,1.175967019,-5.363751028e-17
7.266759606,1.175967019,-0.004874635974
7.225684642,1.175967019,-0.00918494135
7.166632563,1.175967019,-0.01486014564
7.089594504,1.175967019,-0.02129462611
7.000889588,1.175967019,-0.02703795962
6.912319741,1.175967019,-0.03020145773
6.83567384,1.175967019,-0.02962173645
6.777263405,1.175967019,-0.0256127998
6.737142201,1.175967019,-0.01930518688
6.712097021,1.175967019,-0.01130074452
6.701391968,1.175967019,-5.363751028e-17
6.712097021,1.175967019,0.01130074452
6.737142201,1.175967019,0.01930518688
6.777263405,1.175967019,0.0256127998
6.83567384,1.175967019,0.02962173645
6.912319741,1.175967019,0.03020145773
7.000889588,1.175967019,0.02703795962
7.089594504,1.175967019,0.02129462611
7.166632563,1.175967019,0.01486014564
7.225684642,1.175967019,0.00918494135
7.266759606,1.175967019,0.004874635974
7.293436741,1.175967019,0.001909656073
7.300549916,1.467956025,-0.00138884078
7.312595782,1.467956025,-7.151668038e-17
7.281148363,1.467956025,-0.003545189799
7.251275662,1.467956025,-0.006679957345
7.208328695,1.467956025,-0.01080737865
7.152301016,1.467956025,-0.01548700081
7.087788351,1.467956025,-0.01966397063
7.023373916,1.467956025,-0.02196469653
6.967631442,1.467956025,-0.02154308105
6.925151126,1.467956025,-0.01862749076
6.895972069,1.467956025,-0.01404013591
6.877757392,1.467956025,-0.008218723284
6.869971899,1.467956025,-7.151668038e-17
6.877757392,1.467956025,0.008218723284
6.895972069,1.467956025,0.01404013591
6.925151126,1.467956025,0.01862749076
6.967631442,1.467956025,0.02154308105
7.023373916,1.467956025,0.02196469653
7.087788351,1.467956025,0.01966397063
7.152301016,1.467956025,0.01548700081
7.208328695,1.467956025,0.01080737865
7.251275662,1.467956025,0.006679957345
7.281148363,1.467956025,0.003545189799
7.300549916,1.467956025,0.00138884078
7.307663091,1.759945031,-0.0008680254876
7.315191757,1.759945031,-8.939585047e-17
7.295537121,1.759945031,-0.002215743624
7.276866683,1.759945031,-0.004174973341
7.250024828,1.759945031,-0.006754611655
7.215007529,1.759945031,-0.009679375503
7.174687113,1.759945031,-0.01228998164
7.134428091,1.759945031,-0.01372793533
7.099589045,1.759945031,-0.01346442566
7.073038848,1.759945031,-0.01164218173
7.054801937,1.759945031,-0.008775084944
7.043417764,1.759945031,-0.005136702053
7.038551831,1.759945031,-8.939585047e-17
7.043417764,1.759945031,0.005136702053
7.054801937,1.759945031,0.008775084944
7.073038848,1.759945031,0.01164218173
7.099589045,1.759945031,0.01346442566
7.134428091,1.759945031,0.01372793533
7.174687113,1.759945031,0.01228998164
7.215007529,1.759945031,0.009679375503
7.250024828,1.759945031,0.006754611655
7.276866683,1.759945031,0.004174973341
7.295537121,1.759945031,0.002215743624
7.307663091,1.759945031,0.0008680254876
7.307689233,1.760555908,-0.0006124806745
7.295629335,1.761500494,-0.001562070293
7.277127429,1.762861251,-0.002938789955
7.250697088,1.764611634,-0.004742583936
7.216423218,1.766515716,-0.006777314277
7.177111406,1.768090099,-0.008585415862
7.137796015,1.768799609,-0.009579848016
7.103418506,1.768421577,-0.009401209347
7.076685102,1.767145795,-0.008144216475
7.05772328,1.765316344,-0.006155128538
7.045194598,1.763077169,-0.003614890901
7.045194598,1.763077169,0.003614890901
7.05772328,1.765316344,0.006155128538
7.076685102,1.767145795,0.008144216475
7.103418506,1.768421577,0.009401209347
7.137796015,1.768799609,0.009579848016
7.177111406,1.768090099,0.008585415862
7.216423218,1.766515716,0.006777314277
7.250697088,1.764611634,0.004742583936
7.277127429,1.762861251,0.002938789955
7.295629335,1.761500494,0.001562070293
7.307689233,1.760555908,0.0006124806745
7.307700055,1.760808825,-3.092501984e-17
7.295667489,1.762144161,-3.304116526e-17
7.277235225,1.764066928,-8.286799536e-17
7.250974604,1.766538121,-8.343610727e-17
7.217006687,1.769223838,-8.641744696e-17
7.178109229,1.771442558,-8.788609241e-17
7.139181373,1.772441844,-8.996471916e-17
7.104994234,1.771909456,-9.135667116e-17
7.07818711,1.770112013,-9.27637038e-17
7.058928582,1.767532464,-1.025946159e-16
7.045929106,1.764371932,-1.093375829e-16
5.097146739,0.3144654088,-0.0
4.859958194,0.3053578077,-0.1319445486
4.93894996,0.3144654088,-0.1319445486
5.01178467,0.3046233237,-0.0
4.733009265,0.2912467024,-0.1319445486
4.874597923,0.289374226,-0.0
4.53789139,0.2707638666,-0.1319445486
4.663744737,0.2672395486,-0.0
4.257665521,0.2438072365,-0.1319445486
4.360920007,0.2381089968,-0.0
3.892050685,0.2132020982,-0.1319445486
3.965820104,0.2050357022,-0.0
3.470421571,0.1857497043,-0.1319445486
3.510188641,0.1753694055,-0.0
3.053908031,0.1587640306,-0.0
3.048191752,0.1703835365,-0.1319445486
2.657473255,0.1613235205,-0.0
2.681341661,0.1727520196,-0.1319445486
2.353992444,0.1816498329,-0.0
2.400508672,0.1915614431,-0.1319445486
2.144572157,0.2140527074,-0.0
2.206716764,0.2215461925,-0.1319445486
2.013193475,0.2554536983,-0.0
2.085142461,0.2598575572,-0.1319445486
1.956521739,0.3144654088,-0.0
2.03269996,0.3144654088,-0.1319445486
2.085142461,0.3690732604,-0.1319445486
2.013193475,0.3734771194,-0.0
2.206716764,0.4073846251,-0.1319445486
2.144572157,0.4148781103,-0.0
2.400508672,0.4373693745,-0.1319445486
2.353992444,0.4472809847,-0.0
2.681341661,0.456178798,-0.1319445486
2.657473255,0.4676072971,-0.0
3.048191752,0.4585472811,-0.1319445486
3.053908031,0.470166787,-0.0
3.470421571,0.4431811133,-0.1319445486
3.510188641,0.4535614121,-0.0
3.965820104,0.4238951154,-0.0
3.892050685,0.4157287194,-0.1319445486
4.360920007,0.3908218208,-0.0
4.257665521,0.3851235811,-0.1319445486
4.663744737,0.361691269,-0.0
4.53789139,0.358166951,-0.1319445486
4.874597923,0.3395565916,-0.0
4.733009265,0.3376841153,-0.1319445486
5.01178467,0.3243074939,-0.0
4.859958194,0.3235730099,-0.1319445486
4.708131719,0.3060922916,-0.2638890972
4.78075318,0.3144654088,-0.2638890972
4.591420606,0.2931191787,-0.2638890972
4.412038044,0.2742881845,-0.2638890972
4.154411035,0.2495054762,-0.2638890972
3.818281267,0.2213684942,-0.2638890972
3.4306545,0.196130003,-0.2638890972
3.042475474,0.1820030423,-0.2638890972
2.705210067,0.1841805188,-0.2638890972
2.4470249,0.2014730532,-0.2638890972
2.268861371,0.2290396777,-0.2638890972
2.157091448,0.2642614162,-0.2638890972
2.10887818,0.3144654088,-0.2638890972
2.157091448,0.3646694014,-0.2638890972
2.268861371,0.3998911399,-0.2638890972
2.4470249,0.4274577644,-0.2638890972
2.705210067,0.4447502989,-0.2638890972
3.042475474,0.4469277753,-0.2638890972
3.4306545,0.4328008146,-0.2638890972
3.818281267,0.4075623234,-0.2638890972
4.154411035,0.3794253414,-0.2638890972
4.412038044,0.3546426331,-0.2638890972
4.591420606,0.3358116389,-0.2638890972
4.708131719,0.322838526,-0.2638890972
4.556305243,0.3068267756,-0.3958336458
4.622556401,0.3144654088,-0.3958336458
4.449831947,0.294991655,-0.3958336458
4.286184698,0.2778125024,-0.3958336458
4.051156549,0.2552037159,-0.3958336458
3.744511848,0.2295348903,-0.3958336458
3.39088743,0.2065103018,-0.3958336458
3.036759195,0.1936225481,-0.3958336458
2.729078473,0.1956090179,-0.3958336458
2.493541128,0.2113846634,-0.3958336458
2.331005979,0.2365331629,-0.3958336458
2.229040435,0.2686652752,-0.3958336458
2.185056401,0.3144654088,-0.3958336458
2.229040435,0.3602655424,-0.3958336458
2.331005979,0.3923976547,-0.3958336458
2.493541128,0.4175461543,-0.3958336458
2.729078473,0.4333217997,-0.3958336458
3.036759195,0.4353082695,-0.3958336458
3.39088743,0.4224205158,-0.3958336458
3.744511848,0.3993959274,-0.3958336458
4.051156549,0.3737271017,-0.3958336458
4.286184698,0.3511183152,-0.3958336458
4.449831947,0.3339391626,-0.3958336458
4.556305243,0.322104042,-0.3958336458
4.404478767,0.3075612596,-0.5277781944
4.464359622,0.3144654088,-0.5277781944
4.308243288,0.2968641313,-0.5277781944
4.160331351,0.2813368203,-0.5277781944
3.947902063,0.2609019556,-0.5277781944
3.67074243,0.2377012863,-0.5277781944
3.351120359,0.2168906005,-0.5277781944
3.031042916,0.205242054,-0.5277781944
2.752946879,0.207037517,-0.5277781944
2.540057355,0.2212962735,-0.5277781944
2.393150586,0.2440266481,-0.5277781944
2.300989421,0.2730691342,-0.5277781944
2.261234622,0.3144654088,-0.5277781944
2.300989421,0.3558616834,-0.5277781944
2.393150586,0.3849041695,-0.5277781944
2.540057355,0.4076345441,-0.5277781944
2.752946879,0.4218933006,-0.5277781944
3.031042916,0.4236887636,-0.5277781944
3.351120359,0.4120402171,-0.5277781944
3.67074243,0.3912295313,-0.5277781944
3.947902063,0.368028862,-0.5277781944
4.160331351,0.3475939973,-0.5277781944
4.308243288,0.3320666863,-0.5277781944
4.404478767,0.321369558,-0.5277781944
4.252652292,0.3082957435,-0.6597227431
4.306162842,0.3144654088,-0.6597227431
4.16665463,0.2987366077,-0.6597227431
4.034478005,0.2848611383,-0.6597227431
3.844647577,0.2666001953,-0.6597227431
3.596973011,0.2458676823,-0.6597227431
3.311353289,0.2272708993,-0.6597227431
3.025326637,0.2168615598,-0.6597227431
2.776815285,0.2184660161,-0.6597227431
2.586573583,0.2312078836,-0.6597227431
2.455295194,0.2515201333,-0.6597227431
2.372938408,0.2774729932,-0.6597227431
2.337412842,0.3144654088,-0.6597227431
2.372938408,0.3514578244,-0.6597227431
2.455295194,0.3774106843,-0.6597227431
2.586573583,0.397722934,-0.6597227431
2.776815285,0.4104648015,-0.6597227431
3.025326637,0.4120692578,-0.6597227431
3.311353289,0.4016599183,-0.6597227431
3.596973011,0.3830631353,-0.6597227431
3.844647577,0.3623306223,-0.6597227431
4.034478005,0.3440696794,-0.6597227431
4.16665463,0.3301942099,-0.6597227431
4.252652292,0.3206350741,-0.6597227431
4.100825816,0.3090302275,-0.7916672917
4.147966063,0.3144654088,-0.7916672917
4.025065971,0.300609084,-0.7916672917
3.908624659,0.2883854562,-0.7916672917
3.741393091,0.272298435,-0.7916672917
3.523203593,0.2540340783,-0.7916672917
3.271586218,0.237651198,-0.7916672917
3.019610359,0.2284810656,-0.7916672917
2.800683691,0.2298945153,-0.7916672917
2.633089811,0.2411194938,-0.7916672917
2.517439801,0.2590136185,-0.7916672917
2.444887395,0.2818768522,-0.7916672917
2.413591063,0.3144654088,-0.7916672917
2.444887395,0.3470539654,-0.7916672917
2.517439801,0.3699171992,-0.7916672917
2.633089811,0.3878113238,-0.7916672917
2.800683691,0.3990363023,-0.7916672917
3.019610359,0.400449752,-0.7916672917
3.271586218,0.3912796196,-0.7916672917
3.523203593,0.3748967393,-0.7916672917
3.741393091,0.3566323826,-0.7916672917
3.908624659,0.3405453614,-0.7916672917
4.025065971,0.3283217336,-0.7916672917
4.100825816,0.3199005901,-0.7916672917
3.94899934,0.3097647115,-0.9236118403
3.989769284,0.3144654088,-0.9236118403
3.883477312,0.3024815603,-0.9236118403
3.782771312,0.2919097741,-0.9236118403
3.638138606,0.2779966747,-0.9236118403
3.449434174,0.2622004743,-0.9236118403
3.231819147,0.2480314968,-0.9236118403
3.01389408,0.2401005715,-0.9236118403
2.824552097,0.2413230144,-0.9236118403
2.679606039,0.2510311039,-0.9236118403
2.579584408,0.2665071036,-0.9236118403
2.516836381,0.2862807112,-0.9236118403
2.489769284,0.3144654088,-0.9236118403
2.516836381,0.3426501064,-0.9236118403
2.579584408,0.362423714,-0.9236118403
2.679606039,0.3778997137,-0.9236118403
2.824552097,0.3876078032,-0.9236118403
3.01389408,0.3888302461,-0.9236118403
3.231819147,0.3808993208,-0.9236118403
3.449434174,0.3667303433,-0.9236118403
3.638138606,0.3509341429,-0.9236118403
3.782771312,0.3370210435,-0.9236118403
3.883477312,0.3264492573,-0.9236118403
3.94899934,0.3191661062,-0.9236118403
3.797172865,0.3104991954,-1.055556389
3.831572504,0.3144654088,-1.055556389
3.741888653,0.3043540366,-1.055556389
3.656917966,0.295434092,-1.055556389
3.53488412,0.2836949144,-1.055556389
3.375664756,0.2703668703,-1.055556389
3.192052077,0.2584117955,-1.055556389
3.008177801,0.2517200773,-1.055556389
2.848420503,0.2527515135,-1.055556389
2.726122266,0.260942714,-1.055556389
2.641729016,0.2740005888,-1.055556389
2.588785368,0.2906845702,-1.055556389
2.565947504,0.3144654088,-1.055556389
2.588785368,0.3382462474,-1.055556389
2.641729016,0.3549302288,-1.055556389
2.726122266,0.3679881036,-1.055556389
2.848420503,0.3761793041,-1.055556389
3.008177801,0.3772107403,-1.055556389
3.192052077,0.3705190221,-1.055556389
3.375664756,0.3585639473,-1.055556389
3.53488412,0.3452359032,-1.055556389
3.656917966,0.3334967256,-1.055556389
3.741888653,0.324576781,-1.055556389
3.797172865,0.3184316222,-1.055556389
3.645346389,0.3112336794,-1.187500937
3.673375725,0.3144654088,-1.187500937
3.600299995,0.306226513,-1.187500937
3.53106462,0.2989584099,-1.187500937
3.431629634,0.2893931541,-1.187500937
3.301895337,0.2785332663,-1.187500937
3.152285006,0.2687920943,-1.187500937
3.002461522,0.2633395831,-1.187500937
2.872288909,0.2641800126,-1.187500937
2.772638494,0.2708543242,-1.187500937
2.703873623,0.281494074,-1.187500937
2.660734355,0.2950884292,-1.187500937
2.642125725,0.3144654088,-1.187500937
2.660734355,0.3338423884,-1.187500937
2.703873623,0.3474367436,-1.187500937
2.772638494,0.3580764934,-1.187500937
2.872288909,0.364750805,-1.187500937
3.002461522,0.3655912345,-1.187500937
3.152285006,0.3601387233,-1.187500937
3.301895337,0.3503975513,-1.187500937
3.431629634,0.3395376635,-1.187500937
3.53106462,0.3299724077,-1.187500937
3.600299995,0.3227043046,-1.187500937
3.645346389,0.3176971382,-1.187500937
3.707996779,0.3113595676,-1.363701926
3.734934265,0.3144654088,-1.363701926
3.664705115,0.3065474496,-1.363701926
3.598166724,0.2995624671,-1.363701926
3.502605113,0.2903698147,-1.363701926
3.377924465,0.2799329613,-1.363701926
3.234142031,0.2705712453,-1.363701926
3.090154747,0.2653311304,-1.363701926
2.965052857,0.2661388219,-1.363701926
2.869284208,0.2725531434,-1.363701926
2.803197994,0.2827784341,-1.363701926
2.761739165,0.295843237,-1.363701926
2.743855413,0.3144654088,-1.363701926
2.761739165,0.3330875806,-1.363701926
2.803197994,0.3461523835,-1.363701926
2.869284208,0.3563776742,-1.363701926
2.965052857,0.3627919957,-1.363701926
3.090154747,0.3635996872,-1.363701926
3.234142031,0.3583595723,-1.363701926
3.377924465,0.3489978563,-1.363701926
3.502605113,0.3385610029,-1.363701926
3.598166724,0.3293683505,-1.363701926
3.664705115,0.322383368,-1.363701926
3.707996779,0.31757125,-1.363701926
3.77064717,0.3114854559,-1.539902914
3.796492805,0.3144654088,-1.539902914
3.729110235,0.3068683862,-1.539902914
3.665268828,0.3001665243,-1.539902914
3.573580591,0.2913464753,-1.539902914
3.453953593,0.2813326562,-1.539902914
3.315999056,0.2723503963,-1.539902914
3.177847972,0.2673226776,-1.539902914
3.057816805,0.2680976312,-1.539902914
2.965929923,0.2742519626,-1.539902914
2.902522364,0.2840627942,-1.539902914
2.862743976,0.2965980448,-1.539902914
2.845585101,0.3144654088,-1.539902914
2.862743976,0.3323327728,-1.539902914
2.902522364,0.3448680234,-1.539902914
2.965929923,0.354678855,-1.539902914
3.057816805,0.3608331864,-1.539902914
3.177847972,0.36160814,-1.539902914
3.315999056,0.3565804213,-1.539902914
3.453953593,0.3475981614,-1.539902914
3.573580591,0.3375843423,-1.539902914
3.665268828,0.3287642933,-1.539902914
3.729110235,0.3220624314,-1.539902914
3.77064717,0.3174453617,-1.539902914
3.83329756,0.3116113442,-1.716103902
3.858051345,0.3144654088,-1.716103902
3.793515356,0.3071893229,-1.716103902
3.732370932,0.3007705814,-1.716103902
3.64455607,0.2923231359,-1.716103902
3.529982721,0.2827323512,-1.716103902
3.397856081,0.2741295473,-1.716103902
3.265541197,0.2693142249,-1.716103902
3.150580753,0.2700564405,-1.716103902
3.062575637,0.2759507819,-1.716103902
3.001846734,0.2853471543,-1.716103902
2.963748786,0.2973528525,-1.716103902
2.947314789,0.3144654088,-1.716103902
2.963748786,0.3315779651,-1.716103902
3.001846734,0.3435836633,-1.716103902
3.062575637,0.3529800357,-1.716103902
3.150580753,0.3588743771,-1.716103902
3.265541197,0.3596165927,-1.716103902
3.397856081,0.3548012703,-1.716103902
3.529982721,0.3461984664,-1.716103902
3.64455607,0.3366076817,-1.716103902
3.732370932,0.3281602362,-1.716103902
3.793515356,0.3217414947,-1.716103902
3.83329756,0.3173194734,-1.716103902
3.89594795,0.3117372325,-1.892304891
3.919609885,0.3144654088,-1.892304891
3.857920476,0.3075102595,-1.892304891
3.799473036,0.3013746386,-1.892304891
3.715531549,0.2932997966,-1.892304891
3.606011849,0.2841320461,-1.892304891
3.479713106,0.2759086983,-1.892304891
3.353234422,0.2713057722,-1.892304891
3.243344702,0.2720152498,-1.892304891
3.159221352,0.2776496011,-1.892304891
3.101171104,0.2866315145,-1.892304891
3.064753596,0.2981076603,-1.892304891
3.049044477,0.3144654088,-1.892304891
3.064753596,0.3308231573,-1.892304891
3.101171104,0.3422993032,-1.892304891
3.159221352,0.3512812165,-1.892304891
3.243344702,0.3569155678,-1.892304891
3.353234422,0.3576250455,-1.892304891
3.479713106,0.3530221193,-1.892304891
3.606011849,0.3447987715,-1.892304891
3.715531549,0.3356310211,-1.892304891
3.799473036,0.327556179,-1.892304891
3.857920476,0.3214205581,-1.892304891
3.89594795,0.3171935851,-1.892304891
3.958598341,0.3118631207,-2.068505879
3.981168426,0.3144654088,-2.068505879
3.922325597,0.3078311961,-2.068505879
3.866575141,0.3019786957,-2.068505879
3.786507028,0.2942764572,-2.068505879
3.682040976,0.2855317411,-2.068505879
3.56157013,0.2776878493,-2.068505879
3.440927647,0.2732973194,-2.068505879
3.33610865,0.2739740591,-2.068505879
3.255867066,0.2793484203,-2.068505879
3.200495474,0.2879158746,-2.068505879
3.165758407,0.2988624681,-2.068505879
3.150774165,0.3144654088,-2.068505879
3.165758407,0.3300683495,-2.068505879
3.200495474,0.341014943,-2.068505879
3.255867066,0.3495823973,-2.068505879
3.33610865,0.3549567585,-2.068505879
3.440927647,0.3556334982,-2.068505879
3.56157013,0.3512429683,-2.068505879
3.682040976,0.3433990766,-2.068505879
3.786507028,0.3346543604,-2.068505879
3.866575141,0.3269521219,-2.068505879
3.922325597,0.3210996215,-2.068505879
3.958598341,0.3170676969,-2.068505879
4.021248731,0.311989009,-2.244706867
4.042726966,0.3144654088,-2.244706867
3.986730717,0.3081521328,-2.244706867
3.933677245,0.3025827529,-2.244706867
3.857482506,0.2952531178,-2.244706867
3.758070104,0.286931436,-2.244706867
3.643427155,0.2794670003,-2.244706867
3.528620872,0.2752888667,-2.244706867
3.428872598,0.2759328684,-2.244706867
3.352512781,0.2810472396,-2.244706867
3.299819845,0.2892002347,-2.244706867
3.266763217,0.2996172758,-2.244706867
3.252503853,0.3144654088,-2.244706867
3.266763217,0.3293135418,-2.244706867
3.299819845,0.3397305829,-2.244706867
3.352512781,0.347883578,-2.244706867
3.428872598,0.3529979492,-2.244706867
3.528620872,0.353641951,-2.244706867
3.643427155,0.3494638173,-2.244706867
3.758070104,0.3419993816,-2.244706867
3.857482506,0.3336776998,-2.244706867
3.933677245,0.3263480647,-2.244706867
3.986730717,0.3207786848,-2.244706867
4.021248731,0.3169418086,-2.244706867
4.083899122,0.3121148973,-2.420907855
4.104285506,0.3144654088,-2.420907855
4.051135838,0.3084730694,-2.420907855
4.000779349,0.3031868101,-2.420907855
3.928457985,0.2962297784,-2.420907855
3.834099232,0.2883311309,-2.420907855
3.72528418,0.2812461513,-2.420907855
3.616314096,0.2772804139,-2.420907855
3.521636546,0.2778916777,-2.420907855
3.449158495,0.2827460588,-2.420907855
3.399144215,0.2904845948,-2.420907855
3.367768028,0.3003720836,-2.420907855
3.354233541,0.3144654088,-2.420907855
3.367768028,0.328558734,-2.420907855
3.399144215,0.3384462228,-2.420907855
3.449158495,0.3461847588,-2.420907855
3.521636546,0.3510391399,-2.420907855
3.616314096,0.3516504037,-2.420907855
3.72528418,0.3476846663,-2.420907855
3.834099232,0.3405996867,-2.420907855
3.928457985,0.3327010392,-2.420907855
4.000779349,0.3257440076,-2.420907855
4.051135838,0.3204577482,-2.420907855
4.083899122,0.3168159203,-2.420907855
4.146549512,0.3122407856,-2.597108844
4.165844046,0.3144654088,-2.597108844
4.115540958,0.308794006,-2.597108844
4.067881453,0.3037908672,-2.597108844
3.999433464,0.297206439,-2.597108844
3.91012836,0.2897308259,-2.597108844
3.807141205,0.2830253023,-2.597108844
3.704007321,0.2792719612,-2.597108844
3.614400494,0.279850487,-2.597108844
3.545804209,0.284444878,-2.597108844
3.498468585,0.2917689549,-2.597108844
3.468772838,0.3011268914,-2.597108844
3.455963229,0.3144654088,-2.597108844
3.468772838,0.3278039262,-2.597108844
3.498468585,0.3371618627,-2.597108844
3.545804209,0.3444859396,-2.597108844
3.614400494,0.3490803306,-2.597108844
3.704007321,0.3496588564,-2.597108844
3.807141205,0.3459055153,-2.597108844
3.91012836,0.3391999917,-2.597108844
3.999433464,0.3317243786,-2.597108844
4.067881453,0.3251399504,-2.597108844
4.115540958,0.3201368116,-2.597108844
4.146549512,0.3166900321,-2.597108844
4.209199902,0.3123666738,-2.773309832
4.227402586,0.3144654088,-2.773309832
4.179946078,0.3091149427,-2.773309832
4.134983557,0.3043949244,-2.773309832
4.070408943,0.2981830996,-2.773309832
3.986157488,0.2911305208,-2.773309832
3.888998229,0.2848044533,-2.773309832
3.791700546,0.2812635084,-2.773309832
3.707164442,0.2818092963,-2.773309832
3.642449924,0.2861436973,-2.773309832
3.597792955,0.293053315,-2.773309832
3.569777648,0.3018816992,-2.773309832
3.557692917,0.3144654088,-2.773309832
3.569777648,0.3270491185,-2.773309832
3.597792955,0.3358775026,-2.773309832
3.642449924,0.3427871204,-2.773309832
3.707164442,0.3471215213,-2.773309832
3.791700546,0.3476673092,-2.773309832
3.888998229,0.3441263643,-2.773309832
3.986157488,0.3378002968,-2.773309832
4.070408943,0.330747718,-2.773309832
4.134983557,0.3245358932,-2.773309832
4.179946078,0.3198158749,-2.773309832
4.209199902,0.3165641438,-2.773309832
4.271850293,0.3124925621,-2.94951082
4.288961126,0.3144654088,-2.94951082
4.244351199,0.3094358793,-2.94951082
4.202085662,0.3049989815,-2.94951082
4.141384421,0.2991597602,-2.94951082
4.062186616,0.2925302158,-2.94951082
3.970855254,0.2865836043,-2.94951082
3.879393771,0.2832550557,-2.94951082
3.79992839,0.2837681056,-2.94951082
3.739095638,0.2878425165,-2.94951082
3.697117326,0.2943376751,-2.94951082
3.670782459,0.3026365069,-2.94951082
3.659422605,0.3144654088,-2.94951082
3.670782459,0.3262943107,-2.94951082
3.697117326,0.3345931425,-2.94951082
3.739095638,0.3410883011,-2.94951082
3.79992839,0.345162712,-2.94951082
3.879393771,0.3456757619,-2.94951082
3.970855254,0.3423472133,-2.94951082
4.062186616,0.3364006018,-2.94951082
4.141384421,0.3297710574,-2.94951082
4.202085662,0.3239318361,-2.94951082
4.244351199,0.3194949383,-2.94951082
4.271850293,0.3164382555,-2.94951082
4.334500683,0.3126184504,-3.125711808
4.350519666,0.3144654088,-3.125711808
4.308756319,0.3097568159,-3.125711808
4.269187766,0.3056030387,-3.125711808
4.2123599,0.3001364208,-3.125711808
4.138215743,0.2939299107,-3.125711808
4.052712279,0.2883627553,-3.125711808
3.967086996,0.2852466029,-3.125711808
3.892692338,0.2857269149,-3.125711808
3.835741353,0.2895413357,-3.125711808
3.796441696,0.2956220352,-3.125711808
3.771787269,0.3033913147,-3.125711808
3.761152293,0.3144654088,-3.125711808
3.771787269,0.3255395029,-3.125711808
3.796441696,0.3333087824,-3.125711808
3.835741353,0.3393894819,-3.125711808
3.892692338,0.3432039027,-3.125711808
3.967086996,0.3436842147,-3.125711808
4.052712279,0.3405680623,-3.125711808
4.138215743,0.3350009069,-3.125711808
4.2123599,0.3287943968,-3.125711808
4.269187766,0.3233277789,-3.125711808
4.308756319,0.3191740017,-3.125711808
4.334500683,0.3163123672,-3.125711808
4.397151074,0.3127443386,-3.301912797
4.412078206,0.3144654088,-3.301912797
4.37316144,0.3100777526,-3.301912797
4.33628987,0.3062070958,-3.301912797
4.283335379,0.3011130814,-3.301912797
4.214244871,0.2953296057,-3.301912797
4.134569304,0.2901419063,-3.301912797
4.054780221,0.2872381502,-3.301912797
3.985456286,0.2876857242,-3.301912797
3.932387067,0.2912401549,-3.301912797
3.895766066,0.2969063954,-3.301912797
3.87279208,0.3041461225,-3.301912797
3.862881981,0.3144654088,-3.301912797
3.87279208,0.3247846951,-3.301912797
3.895766066,0.3320244222,-3.301912797
3.932387067,0.3376906627,-3.301912797
3.985456286,0.3412450934,-3.301912797
