x,y,z
31.99343938,-0.229471878,-11.06865372
31.68300204,-0.2311656033,-11.06865372
31.3866475,-0.232101728,-11.06865372
31.10987209,-0.2322299396,-11.06865372
30.85662548,-0.2315774384,-11.06865372
30.62921664,-0.2302081388,-11.06865372
30.42842703,-0.2282236122,-11.06865372
30.25376762,-0.2257218934,-11.06865372
30.10380137,-0.2228136541,-11.06865372
29.97647165,-0.2195797058,-11.06865372
29.86939077,-0.216056726,-11.06865372
29.78006807,-0.212238005,-11.06865372
29.70608006,-0.2079963891,-11.06865372
29.64520478,-0.2028777801,-11.06865372
29.59719067,-0.1919517032,-11.06865372
29.6451991,-0.1810007104,-11.06865372
29.70607172,-0.1758505104,-11.06865372
29.78005752,-0.1715704984,-11.06865372
29.86937822,-0.1677054231,-11.06865372
29.97645726,-0.1641268732,-11.06865372
30.10378529,-0.1608268465,-11.06865372
30.25375,-0.1578407812,-11.06865372
30.4284081,-0.1552484217,-11.06865372
30.62919665,-0.1531596938,-11.06865372
30.85660475,-0.1516723787,-11.06865372
31.10985098,-0.150888453,-11.06865372
31.38662643,-0.1508730295,-11.06865372
31.68298141,-0.1516553584,-11.06865372
31.99341959,-0.1531879792,-11.06865372
32.3112318,-0.1553903785,-11.06865372
32.62903986,-0.1581229566,-11.06865372
32.93946634,-0.1612296188,-11.06865372
33.23580376,-0.1645437377,-11.06865372
33.51255877,-0.1679159622,-11.06865372
33.76578481,-0.1712164427,-11.06865372
33.99317637,-0.1743456932,-11.06865372
34.19395499,-0.1772369811,-11.06865372
34.36861298,-0.1798488964,-11.06865372
34.51858973,-0.1821635441,-11.06865372
34.64594465,-0.1841824941,-11.06865372
34.75306971,-0.1859197089,-11.06865372
34.84246223,-0.187397183,-11.06865372
34.91656217,-0.1886414175,-11.06865372
34.9776472,-0.1896806025,-11.06865372
34.98272247,-0.1913301538,-11.41906809
35.0271328,-0.1905425786,-11.41906809
34.9286039,-0.1922799531,-11.41906809
34.86295469,-0.1934176232,-11.41906809
34.78375694,-0.194769225,-11.41906809
34.68884894,-0.1963594008,-11.41906809
34.57601817,-0.1982088275,-11.41906809
34.44314543,-0.2003310154,-11.41906809
34.28840617,-0.2027283372,-11.41906809
34.11052514,-0.2053856249,-11.41906809
33.90906615,-0.2082664253,-11.41906809
33.68471884,-0.2113112448,-11.41906809
33.43952577,-0.2144308434,-11.41906809
33.17698339,-0.2175082979,-11.41906809
32.90195852,-0.2204086697,-11.41906809
32.62039367,-0.2229811358,-11.41906809
32.33882488,-0.2250838852,-11.41906809
32.0637889,-0.2265897204,-11.41906809
31.80122975,-0.2274241111,-11.41906809
31.55601697,-0.227542389,-11.41906809
31.33164982,-0.2269685857,-11.41906809
31.13017397,-0.2257592881,-11.41906809
30.95228177,-0.2240044712,-11.41906809
30.79753994,-0.2217909987,-11.41906809
30.66467534,-0.2192169457,-11.41906809
30.55186586,-0.2163539434,-11.41906809
30.45699609,-0.2132345269,-11.41906809
30.37785942,-0.2098527939,-11.41906809
30.3123087,-0.206096132,-11.41906809
30.25837537,-0.2015622646,-11.41906809
30.21583646,-0.1918829773,-11.41906809
30.25836997,-0.1821799895,-11.41906809
30.31230077,-0.1776160718,-11.41906809
30.37784938,-0.1738228863,-11.41906809
30.45698416,-0.1703970599,-11.41906809
30.55185217,-0.1672247835,-11.41906809
30.66466004,-0.1642989255,-11.41906809
30.79752318,-0.1616508424,-11.41906809
30.95226375,-0.1593511499,-11.41906809
31.13015495,-0.1574972139,-11.41906809
31.3316301,-0.1561756565,-11.41906809
31.55599689,-0.1554768386,-11.41906809
31.8012097,-0.1554584868,-11.41906809
32.06376928,-0.1561465825,-11.41906809
32.33880605,-0.1574991707,-11.41906809
32.62037597,-0.159445033,-11.41906809
32.90194221,-0.1618606141,-11.41906809
33.17696865,-0.1646077449,-11.41906809
33.43951271,-0.1675389133,-11.41906809
33.68470748,-0.1705218928,-11.41906809
33.90905645,-0.1734417082,-11.41906809
34.11051701,-0.1762102576,-11.41906809
34.28839949,-0.1787684317,-11.41906809
34.44314007,-0.1810795342,-11.41906809
34.57601396,-0.1831276867,-11.41906809
34.68884575,-0.1849142451,-11.41906809
34.78375462,-0.186451539,-11.41906809
34.86295311,-0.1877590126,-11.41906809
34.92860295,-0.1888601035,-11.41906809
34.98272204,-0.1897797485,-11.41906809
34.98833279,-0.1912198551,-11.76948247
35.02649131,-0.1905425786,-11.76948247
34.94183268,-0.1920366437,-11.76948247
34.88542514,-0.1930150041,-11.76948247
34.81737634,-0.1941773545,-11.76948247
34.73582888,-0.195544896,-11.76948247
34.6388817,-0.1971354231,-11.76948247
34.52471393,-0.1989605716,-11.76948247
34.39175786,-0.2010224036,-11.76948247
34.23891777,-0.2033079026,-11.76948247
34.06581888,-0.2057857529,-11.76948247
33.87305373,-0.208404827,-11.76948247
33.66237735,-0.2110884213,-11.76948247
33.43679398,-0.2137360271,-11.76948247
33.20048531,-0.2162316394,-11.76948247
32.95855732,-0.2184455904,-11.76948247
32.71662595,-0.2202559483,-11.76948247
32.48030772,-0.2215533376,-11.76948247
32.25470991,-0.2222736435,-11.76948247
32.04401655,-0.2223784233,-11.76948247
31.85123432,-0.2218882805,-11.76948247
31.67812088,-0.2208518097,-11.76948247
31.52527113,-0.2193463111,-11.76948247
31.3923128,-0.2174464257,-11.76948247
31.27815196,-0.2152364388,-11.76948247
31.18122301,-0.2127779211,-11.76948247
31.09970834,-0.2100988548,-11.76948247
31.03171196,-0.2071941971,-11.76948247
30.97538899,-0.2039672156,-11.76948247
30.92904797,-0.2000722892,-11.76948247
30.89249728,-0.1917561345,-11.76948247
30.92904308,-0.183418522,-11.76948247
30.97538181,-0.1794963889,-11.76948247
31.03170287,-0.1762363403,-11.76948247
31.09969754,-0.1732917616,-11.76948247
31.18121062,-0.1705648377,-11.76948247
31.27813811,-0.1680494124,-11.76948247
31.39229763,-0.1657724008,-11.76948247
31.52525482,-0.1637944545,-11.76948247
31.67810366,-0.1621992165,-11.76948247
31.85121646,-0.1610611091,-11.76948247
32.04399838,-0.1604577819,-11.76948247
32.25469176,-0.1604388614,-11.76948247
32.48028995,-0.1610267163,-11.76948247
32.7166089,-0.1621853605,-11.76948247
32.9585413,-0.1638536776,-11.76948247
33.20047055,-0.1659255897,-11.76948247
33.43678064,-0.1682824623,-11.76948247
33.66236552,-0.1707976253,-11.76948247
33.87304344,-0.1733575288,-11.76948247
34.06581009,-0.1758634279,-11.76948247
34.23891041,-0.1782396496,-11.76948247
34.39175182,-0.1804354142,-11.76948247
34.52470907,-0.1824191859,-11.76948247
34.63887789,-0.184177305,-11.76948247
34.735826,-0.1857109131,-11.76948247
34.81737424,-0.187030577,-11.76948247
34.88542372,-0.188152975,-11.76948247
34.94183182,-0.1890982178,-11.76948247
34.9883324,-0.1898877056,-11.76948247
34.99489486,-0.1910919895,-12.11989684
35.02584983,-0.1905425786,-12.11989684
34.95717302,-0.1917545734,-12.11989684
34.91141408,-0.1925482251,-12.11989684
34.8562115,-0.1934911303,-12.11989684
34.79005854,-0.1946004873,-12.11989684
34.711413,-0.1958907309,-12.11989684
34.61879778,-0.1973712998,-12.11989684
34.51094111,-0.1990438665,-12.11989684
34.38695411,-0.2008978715,-12.11989684
34.24653276,-0.2029079106,-12.11989684
34.09015774,-0.2050325083,-12.11989684
33.91925276,-0.2072094417,-12.11989684
33.73625493,-0.2093571767,-12.11989684
33.54455653,-0.2113816088,-12.11989684
33.34829961,-0.2131775501,-12.11989684
33.15203994,-0.2146460884,-12.11989684
32.96033378,-0.2156984976,-12.11989684
32.77732423,-0.2162827677,-12.11989684
32.60640549,-0.2163677141,-12.11989684
32.4500166,-0.2159700517,-12.11989684
32.30958345,-0.2151292019,-12.11989684
32.18558862,-0.2139078723,-12.11989684
32.07773011,-0.212366613,-12.11989684
31.98512051,-0.2105737979,-12.11989684
31.90648977,-0.2085793738,-12.11989684
31.84036341,-0.20640604,-12.11989684
31.78520336,-0.2040497053,-12.11989684
31.73951302,-0.201431898,-12.11989684
31.70192025,-0.1982722426,-12.11989684
31.67226958,-0.1915259992,-12.11989684
31.70191628,-0.1847623671,-12.11989684
31.7395072,-0.1815806645,-12.11989684
31.785196,-0.1789360607,-12.11989684
31.84035466,-0.1765473755,-12.11989684
31.90647973,-0.1743352598,-12.11989684
31.98510929,-0.1722947199,-12.11989684
32.07771782,-0.1704475904,-12.11989684
32.18557541,-0.1688430735,-12.11989684
32.3095695,-0.1675490224,-12.11989684
32.45000213,-0.1666258101,-12.11989684
32.60639076,-0.1661364273,-12.11989684
32.77730952,-0.1661211316,-12.11989684
32.96031938,-0.1665980683,-12.11989684
33.15202613,-0.1675380435,-12.11989684
33.34828662,-0.1688914774,-12.11989684
33.54454456,-0.1705723156,-12.11989684
33.73624412,-0.1724843181,-12.11989684
33.91924318,-0.1745247265,-12.11989684
34.0901494,-0.1766014254,-12.11989684
34.24652564,-0.1786343104,-12.11989684
34.38694815,-0.1805619935,-12.11989684
34.51093621,-0.182343281,-12.11989684
34.61879385,-0.1839525905,-12.11989684
34.71140992,-0.1853788413,-12.11989684
34.7900562,-0.1866229599,-12.11989684
34.8562098,-0.1876935187,-12.11989684
34.91141292,-0.188604048,-12.11989684
34.95717232,-0.1893708623,-12.11989684
34.99489454,-0.1900113226,-12.11989684
35.00290063,-0.1909374768,-12.47031122
35.02520835,-0.1905425786,-12.47031122
34.97571636,-0.191413707,-12.47031122
34.94274015,-0.1919841225,-12.47031122
34.90295838,-0.1926617819,-12.47031122
34.85528521,-0.1934590287,-12.47031122
34.79860927,-0.1943862139,-12.47031122
34.73186606,-0.1954500901,-12.47031122
34.65413909,-0.1966518199,-12.47031122
34.5647878,-0.1979837641,-12.47031122
34.46359308,-0.1994276049,-12.47031122
34.35090135,-0.2009534691,-12.47031122
34.22773861,-0.2025165633,-12.47031122
34.09586115,-0.2040582115,-12.47031122
33.95771362,-0.2055107106,-12.47031122
33.81628101,-0.2067983953,-12.47031122
33.67484643,-0.2078501371,-12.47031122
33.53669335,-0.2086021477,-12.47031122
33.4048075,-0.2090170844,-12.47031122
33.2816349,-0.2090725877,-12.47031122
33.16893327,-0.2087807847,-12.47031122
33.06773014,-0.208170132,-12.47031122
32.97837331,-0.207285836,-12.47031122
32.90064513,-0.2061715222,-12.47031122
32.83390608,-0.2048764342,-12.47031122
32.7772409,-0.2034365241,-12.47031122
32.72958701,-0.2018681007,-12.47031122
32.689836,-0.2001681643,-12.47031122
32.65690934,-0.1982801141,-12.47031122
32.62981821,-0.1960018518,-12.47031122
32.60845069,-0.1911391803,-12.47031122
32.62981581,-0.1862659598,-12.47031122
32.65690581,-0.1839743224,-12.47031122
32.68983153,-0.1820700159,-12.47031122
32.7295817,-0.1803504537,-12.47031122
32.77723481,-0.1787585028,-12.47031122
32.83389927,-0.1772906161,-12.47031122
32.90063767,-0.1759625779,-12.47031122
32.97836529,-0.1748098881,-12.47031122
33.06772168,-0.1738814749,-12.47031122
33.16892449,-0.1732208562,-12.47031122
33.28162597,-0.1728734101,-12.47031122
33.40479858,-0.1728681006,-12.47031122
33.53668461,-0.1732179225,-12.47031122
33.67483805,-0.1739017239,-12.47031122
33.81627313,-0.1748836364,-12.47031122
33.95770636,-0.1761014928,-12.47031122
34.09585459,-0.1774857854,-12.47031122
34.22773279,-0.1789623228,-12.47031122
34.35089629,-0.1804646088,-12.47031122
34.46358876,-0.1819348345,-12.47031122
34.56478418,-0.1833287133,-12.47031122
34.65413612,-0.1846165427,-12.47031122
34.73186367,-0.185779897,-12.47031122
34.7986074,-0.1868108205,-12.47031122
34.85528379,-0.1877100235,-12.47031122
34.90295735,-0.188483733,-12.47031122
34.94273945,-0.1891417512,-12.47031122
34.97571594,-0.1896958856,-12.47031122
35.00290043,-0.1901586943,-12.47031122
35.01283936,-0.1907472865,-12.82072559
35.02456686,-0.1905425786,-12.82072559
34.99854819,-0.1909941188,-12.82072559
34.98121211,-0.1912897139,-12.82072559
34.96029824,-0.1916408051,-12.82072559
34.93523575,-0.1920537409,-12.82072559
34.90544037,-0.1925338186,-12.82072559
34.87035249,-0.1930844499,-12.82072559
34.82949029,-0.1937061272,-12.82072559
34.78251702,-0.1943947512,-12.82072559
34.72931749,-0.1951406637,-12.82072559
34.67007383,-0.1959282049,-12.82072559
34.60532543,-0.1967339594,-12.82072559
34.53599559,-0.1975273085,-12.82072559
34.4633695,-0.1982729771,-12.82072559
34.38901643,-0.1989315744,-12.82072559
34.31466236,-0.1994661333,-12.82072559
34.24203345,-0.1998435455,-12.82072559
34.17269934,-0.2000445671,-12.82072559
34.10794595,-0.2000577609,-12.82072559
34.04869732,-0.1998897302,-12.82072559
33.99549364,-0.1995555685,-12.82072559
33.94851774,-0.1990790865,-12.82072559
33.9076552,-0.1984831903,-12.82072559
33.87256981,-0.197793685,-12.82072559
33.8427804,-0.1970293522,-12.82072559
33.81772836,-0.1961986279,-12.82072559
33.79683097,-0.1952997911,-12.82072559
33.77952126,-0.1943029463,-12.82072559
33.76527941,-0.1931017193,-12.82072559
33.75404686,-0.1905425786,-12.82072559
33.76527941,-0.187983438,-12.82072559
33.77952126,-0.186782211,-12.82072559
33.79683097,-0.1857853661,-12.82072559
33.81772836,-0.1848865293,-12.82072559
33.8427804,-0.184055805,-12.82072559
33.87256981,-0.1832914723,-12.82072559
33.9076552,-0.182601967,-12.82072559
33.94851774,-0.1820060708,-12.82072559
33.99549364,-0.1815295887,-12.82072559
34.04869732,-0.181195427,-12.82072559
34.10794595,-0.1810273964,-12.82072559
34.17269934,-0.1810405901,-12.82072559
34.24203345,-0.1812416118,-12.82072559
34.31466236,-0.181619024,-12.82072559
34.38901643,-0.1821535828,-12.82072559
34.4633695,-0.1828121802,-12.82072559
34.53599559,-0.1835578488,-12.82072559
34.60532543,-0.1843511979,-12.82072559
34.67007383,-0.1851569524,-12.82072559
34.72931749,-0.1859444936,-12.82072559
34.78251702,-0.1866904061,-12.82072559
34.82949029,-0.1873790301,-12.82072559
34.87035249,-0.1880007074,-12.82072559
34.90544037,-0.1885513387,-12.82072559
34.93523575,-0.1890314163,-12.82072559
34.96029824,-0.1894443521,-12.82072559
34.98121211,-0.1897954434,-12.82072559
34.99854819,-0.1900910384,-12.82072559
35.01283936,-0.1903378707,-12.82072559
35.01286348,-0.1906870748,-12.8208677
34.99860905,-0.1908612384,-12.82103711
34.98132811,-0.1910697126,-12.82123694
34.96049573,-0.1913171903,-12.82146958
34.93555159,-0.1916080713,-12.82173589
34.90592486,-0.1919459913,-12.82203424
34.87107218,-0.1923332349,-12.82235927
34.83058186,-0.192769616,-12.82264998
34.78406205,-0.1932527494,-12.8229286
34.73139073,-0.1937759155,-12.82318482
34.67274958,-0.1943281498,-12.82337366
34.6086419,-0.1948932582,-12.82350351
34.5399589,-0.1954499067,-12.82358053
34.46794703,-0.195973519,-12.82359666
34.39415034,-0.1964364568,-12.82356825
34.32025358,-0.196812835,-12.82350036
34.24797049,-0.1970793327,-12.82339626
34.17884933,-0.197222318,-12.82326655
34.11417,-0.1972335967,-12.82311584
34.05486221,-0.1971176246,-12.82294924
34.0014773,-0.196884834,-12.82277133
33.95421454,-0.1965517576,-12.82258804
33.91297648,-0.1961343758,-12.82240168
33.87744572,-0.1956507558,-12.82221438
33.8471546,-0.1951140157,-12.8220277
33.82155144,-0.1945300819,-12.82184
33.80005303,-0.1938976892,-12.82164884
33.78207275,-0.1931957277,-12.82144649
33.76701881,-0.19234905,-12.82121145
33.76701881,-0.1887341367,-12.82121145
33.78207276,-0.1878865389,-12.82144649
33.80005303,-0.1871838178,-12.82164884
33.82155144,-0.1865507441,-12.82184
33.84715461,-0.1859661858,-12.8220277
33.87744573,-0.1854288773,-12.82221438
33.91297649,-0.1849447526,-12.82240168
33.95421455,-0.1845269452,-12.82258804
34.00147731,-0.1841935436,-12.82277133
34.05486223,-0.1839605475,-12.82294924
34.11417002,-0.183844508,-12.82311584
34.17884935,-0.1838558702,-12.82326655
34.24797051,-0.1839990964,-12.82339626
34.3202536,-0.1842659854,-12.82350036
34.39415036,-0.1846428813,-12.82356825
34.46794706,-0.1851064491,-12.82359666
34.53995892,-0.1856307569,-12.82358053
34.60864192,-0.186188138,-12.82350351
34.67274959,-0.1867539722,-12.82337366
34.73139074,-0.1873068891,-12.82318482
34.78406205,-0.1878306539,-12.8229286
34.83058187,-0.1883143013,-12.82264998
34.87107219,-0.1887511041,-12.82235927
34.90592487,-0.1891386146,-12.82203424
34.9355516,-0.1894767262,-12.82173589
34.96049573,-0.1897677418,-12.82146958
34.98132812,-0.1900153122,-12.82123694
34.99860905,-0.1902238493,-12.82103711
35.01286348,-0.1903980549,-12.8208677
35.01287346,-0.1905425591,-12.82092655
34.99863425,-0.1905425295,-12.8211661
34.98137614,-0.190542485,-12.82144866
34.96057747,-0.1905424195,-12.82177757
34.9356823,-0.1905423243,-12.82215404
34.90612533,-0.1905421889,-12.82257575
34.87136991,-0.1905420002,-12.8230351
34.83103324,-0.1905417023,-12.82344578
34.78470073,-0.1905413391,-12.82383932
34.73224756,-0.1905409161,-12.82420118
34.67385517,-0.1905404339,-12.82446782
34.61001203,-0.1905399212,-12.82465115
34.54159613,-0.1905394037,-12.82475988
34.46983795,-0.1905389123,-12.82478265
34.39627116,-0.1905384671,-12.82474255
34.32256351,-0.1905381013,-12.8246467
34.25042359,-0.1905378246,-12.82449973
34.18139081,-0.1905376542,-12.82431658
34.11674255,-0.1905375949,-12.82410378
34.05741081,-0.1905376422,-12.8238685
34.00395149,-0.1905377872,-12.82361722
33.95657063,-0.1905380167,-12.82335831
33.91517775,-0.1905383172,-12.82309502
33.8794632,-0.1905386737,-12.82283039
33.84896489,-0.1905390753,-12.82256658
33.82313399,-0.1905395166,-12.82230131
33.80138709,-0.1905399978,-12.82203111
33.78312943,-0.1905405348,-12.82174503
33.76773936,-0.1905411852,-12.82141272
34.32931282,0.08779846068,0.1303314073
34.08418,0.07924072525,0.1303314073
33.78545747,0.06892199284,0.1303314073
33.42308429,0.05656475001,0.1303314073
32.98591949,0.04188751391,0.1303314073
32.46202741,0.0246249182,0.1303314073
31.83919057,0.0045555509,0.1303314073
31.10570557,-0.01846313797,0.1303314073
30.25149399,-0.04445158018,0.1303314073
29.26950802,-0.07323813451,0.1303314073
28.15733042,-0.1044186059,0.1303314073
26.91875846,-0.1373375218,0.1303314073
25.56505762,-0.1710144896,0.1303314073
24.11552053,-0.20416869,0.1303314073
22.59700778,-0.235321483,0.1303314073
21.04232345,-0.262823026,0.1303314073
19.48755502,-0.2851248917,0.1303314073
17.96880541,-0.300835345,0.1303314073
16.51891328,-0.3091200327,0.1303314073
15.16479554,-0.3095531667,0.1303314073
13.92580783,-0.3024072496,0.1303314073
12.81328546,-0.2882563811,0.1303314073
11.83108676,-0.2680913122,0.1303314073
10.97685224,-0.2429558712,0.1303314073
10.24358722,-0.2138394727,0.1303314073
9.621270181,-0.1815148376,0.1303314073
9.098277075,-0.146392318,0.1303314073
8.662541277,-0.1082569704,0.1303314073
8.302473301,-0.06579296942,0.1303314073
8.008145338,-0.01419881223,0.1303314073
7.795472823,0.08779846068,0.1303314073
8.008145338,0.1897957336,0.1303314073
8.302473301,0.2413898908,0.1303314073
8.662541277,0.2838538917,0.1303314073
9.098277075,0.3219892393,0.1303314073
9.621270181,0.357111759,0.1303314073
10.24358722,0.3894363941,0.1303314073
10.97685224,0.4185527926,0.1303314073
11.83108676,0.4436882336,0.1303314073
12.81328546,0.4638533025,0.1303314073
13.92580783,0.4780041709,0.1303314073
15.16479554,0.485150088,0.1303314073
16.51891328,0.4847169541,0.1303314073
17.96880541,0.4764322663,0.1303314073
19.48755502,0.4607218131,0.1303314073
21.04232345,0.4384199473,0.1303314073
22.59700778,0.4109184043,0.1303314073
24.11552053,0.3797656114,0.1303314073
25.56505762,0.346611411,0.1303314073
26.91875846,0.3129344432,0.1303314073
28.15733042,0.2800155273,0.1303314073
29.26950802,0.2488350559,0.1303314073
30.25149399,0.2200485015,0.1303314073
31.10570557,0.1940600593,0.1303314073
31.83919057,0.1710413705,0.1303314073
32.46202741,0.1509720032,0.1303314073
32.98591949,0.1337094075,0.1303314073
33.42308429,0.1190321714,0.1303314073
33.78545747,0.1066749285,0.1303314073
34.08418,0.09635619612,0.1303314073
34.50356565,0.08559692137,0.2606628146
34.26131727,0.07713988361,0.2606628146
33.96610976,0.06694257029,0.2606628146
33.60800058,0.05473073341,0.2606628146
33.17597983,0.04022620231,0.2606628146
32.65825232,0.02316673316,0.2606628146
32.04274432,0.003333519309,0.2606628146
31.31789013,-0.01941431185,0.2606628146
30.47372993,-0.04509695169,0.2606628146
29.50329886,-0.07354477864,0.2606628146
28.4042081,-0.1043583538,0.2606628146
27.18021024,-0.1368899174,0.2606628146
25.84243822,-0.170170613,0.2606628146
24.40995763,-0.2029346925,0.2606628146
22.909313,-0.2337209149,0.2606628146
21.37292242,-0.2608988511,0.2606628146
19.83644874,-0.2829382939,0.2606628146
18.33557004,-0.2984638844,0.2606628146
16.90273859,-0.3066510874,0.2606628146
15.56455457,-0.3070791247,0.2606628146
14.34014586,-0.3000172926,0.2606628146
13.24071438,-0.2860329355,0.2606628146
12.27007308,-0.2661051461,0.2606628146
11.42589021,-0.2412654704,0.2606628146
10.70125342,-0.2124916805,0.2606628146
10.0862591,-0.1805474048,0.2606628146
9.569419982,-0.145838167,0.2606628146
9.138811426,-0.1081515527,0.2606628146
8.78298032,-0.06618721977,0.2606628146
8.492115673,-0.01520016384,0.2606628146
8.281945646,0.08559692137,0.2606628146
8.492115673,0.1863940066,0.2606628146
8.78298032,0.2373810625,0.2606628146
9.138811426,0.2793453955,0.2606628146
9.569419982,0.3170320097,0.2606628146
10.0862591,0.3517412476,0.2606628146
10.70125342,0.3836855232,0.2606628146
11.42589021,0.4124593131,0.2606628146
12.27007308,0.4372989889,0.2606628146
13.24071438,0.4572267782,0.2606628146
14.34014586,0.4712111354,0.2606628146
15.56455457,0.4782729675,0.2606628146
16.90273859,0.4778449302,0.2606628146
18.33557004,0.4696577271,0.2606628146
19.83644874,0.4541321366,0.2606628146
21.37292242,0.4320926938,0.2606628146
22.909313,0.4049147576,0.2606628146
24.40995763,0.3741285353,0.2606628146
25.84243822,0.3413644557,0.2606628146
27.18021024,0.3080837601,0.2606628146
28.4042081,0.2755521965,0.2606628146
29.50329886,0.2447386214,0.2606628146
30.47372993,0.2162907944,0.2606628146
31.31789013,0.1906081546,0.2606628146
32.04274432,0.1678603234,0.2606628146
32.65825232,0.1480271096,0.2606628146
33.17597983,0.1309676404,0.2606628146
33.60800058,0.1164631093,0.2606628146
33.96610976,0.1042512724,0.2606628146
34.26131727,0.09405395912,0.2606628146
34.67781847,0.08339538205,0.3909942219
34.43845454,0.07503904198,0.3909942219
34.14676206,0.06496314774,0.3909942219
33.79291687,0.05289671682,0.3909942219
33.36604018,0.03856489071,0.3909942219
32.85447723,0.02170854811,0.3909942219
32.24629806,0.002111487719,0.3909942219
31.53007469,-0.02036548574,0.3909942219
30.69596588,-0.04574232319,0.3909942219
29.7370897,-0.07385142277,0.3909942219
28.65108578,-0.1042981016,0.3909942219
27.44166202,-0.1364423129,0.3909942219
26.11981881,-0.1693267364,0.3909942219
24.70439472,-0.201700695,0.3909942219
23.22161822,-0.2321203469,0.3909942219
21.7035214,-0.2589746762,0.3909942219
20.18534246,-0.280751696,0.3909942219
18.70233468,-0.2960924239,0.3909942219
17.28656391,-0.3041821421,0.3909942219
15.9643136,-0.3046050828,0.3909942219
14.75448388,-0.2976273357,0.3909942219
13.6681433,-0.2838094898,0.3909942219
12.70905939,-0.2641189801,0.3909942219
11.87492819,-0.2395750695,0.3909942219
11.15891962,-0.2111438882,0.3909942219
10.55124802,-0.1795799721,0.3909942219
10.04056289,-0.145284016,0.3909942219
9.615081575,-0.1080461351,0.3909942219
9.263487339,-0.06658147012,0.3909942219
8.976086008,-0.01620151545,0.3909942219
8.768418468,0.08339538205,0.3909942219
8.976086008,0.1829922796,0.3909942219
9.263487339,0.2333722342,0.3909942219
9.615081575,0.2748368992,0.3909942219
10.04056289,0.3120747801,0.3909942219
10.55124802,0.3463707362,0.3909942219
11.15891962,0.3779346523,0.3909942219
11.87492819,0.4063658336,0.3909942219
12.70905939,0.4309097442,0.3909942219
13.6681433,0.4506002539,0.3909942219
14.75448388,0.4644180998,0.3909942219
15.9643136,0.4713958469,0.3909942219
17.28656391,0.4709729062,0.3909942219
18.70233468,0.462883188,0.3909942219
20.18534246,0.4475424601,0.3909942219
21.7035214,0.4257654403,0.3909942219
23.22161822,0.398911111,0.3909942219
24.70439472,0.3684914591,0.3909942219
26.11981881,0.3361175005,0.3909942219
27.44166202,0.303233077,0.3909942219
28.65108578,0.2710888657,0.3909942219
29.7370897,0.2406421869,0.3909942219
30.69596588,0.2125330873,0.3909942219
31.53007469,0.1871562498,0.3909942219
32.24629806,0.1646792764,0.3909942219
32.85447723,0.145082216,0.3909942219
33.36604018,0.1282258734,0.3909942219
33.79291687,0.1138940473,0.3909942219
34.14676206,0.1018276164,0.3909942219
34.43845454,0.09175172212,0.3909942219
34.85207129,0.08119384273,0.5213256291
34.6155918,0.07293820034,0.5213256291
34.32741435,0.06298372519,0.5213256291
33.97783315,0.05106270023,0.5213256291
33.55610052,0.03690357911,0.5213256291
33.05070214,0.02025036307,0.5213256291
32.44985181,0.0008894561279,0.5213256291
31.74225925,-0.02131665962,0.5213256291
30.91820183,-0.04638769469,0.5213256291
29.97088054,-0.0741580669,0.5213256291
28.89796346,-0.1042378495,0.5213256291
27.70311381,-0.1359947085,0.5213256291
26.3971994,-0.1684828597,0.5213256291
24.99883182,-0.2004666976,0.5213256291
23.53392344,-0.2305197788,0.5213256291
22.03412038,-0.2570505013,0.5213256291
20.53423618,-0.2785650982,0.5213256291
19.06909931,-0.2937209633,0.5213256291
17.67038922,-0.3017131968,0.5213256291
16.36407263,-0.3021310408,0.5213256291
15.16882191,-0.2952373788,0.5213256291
14.09557222,-0.2815860442,0.5213256291
13.14804571,-0.262132814,0.5213256291
12.32396616,-0.2378846687,0.5213256291
11.61658582,-0.209796096,0.5213256291
11.01623694,-0.1786125393,0.5213256291
10.51170579,-0.1447298651,0.5213256291
10.09135172,-0.1079407175,0.5213256291
9.743994357,-0.06697572047,0.5213256291
9.460056343,-0.01720286707,0.5213256291
9.254891291,0.08119384273,0.5213256291
9.460056343,0.1795905525,0.5213256291
9.743994357,0.2293634059,0.5213256291
10.09135172,0.2703284029,0.5213256291
10.51170579,0.3071175505,0.5213256291
11.01623694,0.3410002248,0.5213256291
11.61658582,0.3721837815,0.5213256291
12.32396616,0.4002723542,0.5213256291
13.14804571,0.4245204994,0.5213256291
14.09557222,0.4439737297,0.5213256291
15.16882191,0.4576250642,0.5213256291
16.36407263,0.4645187263,0.5213256291
17.67038922,0.4641008823,0.5213256291
19.06909931,0.4561086488,0.5213256291
20.53423618,0.4409527837,0.5213256291
22.03412038,0.4194381868,0.5213256291
23.53392344,0.3929074643,0.5213256291
24.99883182,0.362854383,0.5213256291
26.3971994,0.3308705452,0.5213256291
27.70311381,0.298382394,0.5213256291
28.89796346,0.266625535,0.5213256291
29.97088054,0.2365457524,0.5213256291
30.91820183,0.2087753802,0.5213256291
31.74225925,0.1837043451,0.5213256291
32.44985181,0.1614982293,0.5213256291
33.05070214,0.1421373224,0.5213256291
33.55610052,0.1254841064,0.5213256291
33.97783315,0.1113249852,0.5213256291
34.32741435,0.09940396027,0.5213256291
34.6155918,0.08944948512,0.5213256291
34.86388422,0.07787754643,0.6475170607
34.63168193,0.07040941669,0.6475170607
34.34871719,0.06140450813,0.6475170607
34.0054601,0.05062064148,0.6475170607
33.5913578,0.03781217294,0.6475170607
33.09510485,0.02274752202,0.6475170607
32.50512904,0.005233463929,0.6475170607
31.81034532,-0.01485440918,0.6475170607
31.00120811,-0.03753394274,0.6475170607
30.07104286,-0.06265537825,0.6475170607
29.01756143,-0.08986603039,0.6475170607
27.84436234,-0.1185939715,0.6475170607
26.56211834,-0.1479837994,0.6475170607
25.1891055,-0.176917863,0.6475170607
23.75076805,-0.2041062146,0.6475170607
22.27817921,-0.2281094161,0.6475170607
20.80552117,-0.247576519,0.6475170607
19.36698881,-0.2612938174,0.6475170607
17.9936838,-0.2685333394,0.6475170607
16.71109668,-0.2689242682,0.6475170607
15.53755537,-0.2627040446,0.6475170607
14.48379003,-0.2503743951,0.6475170607
13.55344916,-0.2328046126,0.6475170607
12.74429276,-0.2108922179,0.6475170607
12.04968925,-0.1855143318,0.6475170607
11.4601397,-0.1573456727,0.6475170607
10.96462475,-0.1267368063,0.6475170607
10.55169482,-0.09351648577,0.6475170607
10.21032768,-0.05654319703,0.6475170607
9.930959978,-0.01166444817,0.6475170607
9.726006725,0.07787754643,0.6475170607
9.930959978,0.167419541,0.6475170607
10.21032768,0.2122982899,0.6475170607
10.55169482,0.2492715786,0.6475170607
10.96462475,0.2824918992,0.6475170607
11.4601397,0.3131007655,0.6475170607
12.04968925,0.3412694246,0.6475170607
12.74429276,0.3666473108,0.6475170607
13.55344916,0.3885597055,0.6475170607
14.48379003,0.406129488,0.6475170607
15.53755537,0.4184591375,0.6475170607
16.71109668,0.4246793611,0.6475170607
17.9936838,0.4242884323,0.6475170607
19.36698881,0.4170489103,0.6475170607
20.80552117,0.4033316118,0.6475170607
22.27817921,0.383864509,0.6475170607
23.75076805,0.3598613075,0.6475170607
25.1891055,0.3326729559,0.6475170607
26.56211834,0.3037388923,0.6475170607
27.84436234,0.2743490643,0.6475170607
29.01756143,0.2456211233,0.6475170607
30.07104286,0.2184104711,0.6475170607
31.00120811,0.1932890356,0.6475170607
31.81034532,0.170609502,0.6475170607
32.50512904,0.1505216289,0.6475170607
33.09510485,0.1330075708,0.6475170607
33.5913578,0.1179429199,0.6475170607
34.0054601,0.1051344514,0.6475170607
34.34871719,0.09435058474,0.6475170607
34.63168193,0.08534567618,0.6475170607
34.87569716,0.07456125014,0.7737084923
34.64777205,0.06788063303,0.7737084923
34.37002003,0.05982529106,0.7737084923
34.03308705,0.05017858272,0.7737084923
33.62661508,0.03872076676,0.7737084923
33.13950757,0.02524468097,0.7737084923
32.56040627,0.009577471731,0.7737084923
31.87843138,-0.008392158735,0.7737084923
31.08421439,-0.02868019079,0.7737084923
30.17120518,-0.05115268961,0.7737084923
29.1371594,-0.07549421129,0.7737084923
27.98561088,-0.1011932344,0.7737084923
26.72703727,-0.1274847391,0.7737084923
25.37937919,-0.1533690285,0.7737084923
23.96761266,-0.1776926504,0.7737084923
22.52223805,-0.199168331,0.7737084923
21.07680615,-0.2165879397,0.7737084923
19.66487831,-0.2288666715,0.7737084923
18.31697838,-0.235353482,0.7737084923
17.05812072,-0.2357174956,0.7737084923
15.90628884,-0.2301707105,0.7737084923
14.87200783,-0.219162746,0.7737084923
13.95885261,-0.2034764112,0.7737084923
13.16461936,-0.1838997671,0.7737084923
12.48279268,-0.1612325675,0.7737084923
11.90404246,-0.136078806,0.7737084923
11.4175437,-0.1087437476,0.7737084923
11.01203792,-0.0790922541,0.7737084923
10.67666101,-0.0461106736,0.7737084923
10.40186361,-0.006126029284,0.7737084923
10.19712216,0.07456125014,0.7737084923
10.40186361,0.1552485296,0.7737084923
10.67666101,0.1952331739,0.7737084923
11.01203792,0.2282147544,0.7737084923
11.4175437,0.2578662478,0.7737084923
11.90404246,0.2852013063,0.7737084923
12.48279268,0.3103550678,0.7737084923
13.16461936,0.3330222674,0.7737084923
13.95885261,0.3525989115,0.7737084923
14.87200783,0.3682852462,0.7737084923
15.90628884,0.3792932108,0.7737084923
17.05812072,0.3848399959,0.7737084923
18.31697838,0.3844759823,0.7737084923
19.66487831,0.3779891718,0.7737084923
21.07680615,0.36571044,0.7737084923
22.52223805,0.3482908313,0.7737084923
23.96761266,0.3268151507,0.7737084923
25.37937919,0.3024915288,0.7737084923
26.72703727,0.2766072394,0.7737084923
27.98561088,0.2503157347,0.7737084923
29.1371594,0.2246167116,0.7737084923
30.17120518,0.2002751899,0.7737084923
31.08421439,0.1778026911,0.7737084923
31.87843138,0.157514659,0.7737084923
32.56040627,0.1395450285,0.7737084923
33.13950757,0.1238778193,0.7737084923
33.62661508,0.1104017335,0.7737084923
34.03308705,0.09894391755,0.7737084923
34.37002003,0.08929720921,0.7737084923
34.64777205,0.08124186724,0.7737084923
34.88751009,0.07124495384,0.8998999239
34.66386217,0.06535184938,0.8998999239
34.39132287,0.058246074,0.8998999239
34.06071399,0.04973652397,0.8998999239
33.66187236,0.03962936059,0.8998999239
33.18391028,0.02774183991,0.8998999239
32.61568349,0.01392147953,0.8998999239
31.94651744,-0.00192990829,0.8998999239
31.16722066,-0.01982643884,0.8998999239
30.2713675,-0.03965000096,0.8998999239
29.25675737,-0.06112239219,0.8998999239
28.12685941,-0.08379249733,0.8998999239
26.8919562,-0.1069856788,0.8998999239
25.56965287,-0.129820194,0.8998999239
24.18445727,-0.1512790862,0.8998999239
22.76629688,-0.1702272458,0.8998999239
21.34809114,-0.1855993605,0.8998999239
19.9627678,-0.1964395256,0.8998999239
18.64027296,-0.2021736246,0.8998999239
17.40514477,-0.202510723,0.8998999239
16.2750223,-0.1976373764,0.8998999239
15.26022564,-0.1879510969,0.8998999239
14.36425606,-0.1741482098,0.8998999239
13.58494596,-0.1569073163,0.8998999239
12.9158961,-0.1369508033,0.8998999239
12.34794522,-0.1148119393,0.8998999239
11.87046265,-0.09075068882,0.8998999239
11.47238102,-0.06466802242,0.8998999239
11.14299434,-0.03567815016,0.8998999239
10.87276725,-0.0005876103925,0.8998999239
10.66823759,0.07124495384,0.8998999239
10.87276725,0.1430775181,0.8998999239
11.14299434,0.1781680578,0.8998999239
11.47238102,0.2071579301,0.8998999239
11.87046265,0.2332405965,0.8998999239
12.34794522,0.257301847,0.8998999239
12.9158961,0.279440711,0.8998999239
13.58494596,0.299397224,0.8998999239
14.36425606,0.3166381175,0.8998999239
15.26022564,0.3304410045,0.8998999239
16.2750223,0.3401272841,0.8998999239
17.40514477,0.3450006307,0.8998999239
18.64027296,0.3446635323,0.8998999239
19.9627678,0.3389294333,0.8998999239
21.34809114,0.3280892681,0.8998999239
22.76629688,0.3127171535,0.8998999239
24.18445727,0.2937689939,0.8998999239
25.56965287,0.2723101017,0.8998999239
26.8919562,0.2494755864,0.8998999239
28.12685941,0.226282405,0.8998999239
29.25675737,0.2036122999,0.8998999239
30.2713675,0.1821399086,0.8998999239
31.16722066,0.1623163465,0.8998999239
31.94651744,0.144419816,0.8998999239
32.61568349,0.1285684281,0.8998999239
33.18391028,0.1147480678,0.8998999239
33.66187236,0.1028605471,0.8998999239
34.06071399,0.09275338371,0.8998999239
34.39132287,0.08424383368,0.8998999239
34.66386217,0.0771380583,0.8998999239
34.89932303,0.06792865754,1.026091355
34.67995229,0.06282306573,1.026091355
34.41262571,0.05666685693,1.026091355
34.08834094,0.04929446522,1.026091355
33.69712964,0.04053795441,1.026091355
33.22831299,0.03023899886,1.026091355
32.67096072,0.01826548733,1.026091355
32.0146035,0.004532342154,1.026091355
31.25022694,-0.01097268689,1.026091355
30.37152982,-0.02814731231,1.026091355
29.37635534,-0.04675057309,1.026091355
28.26810795,-0.06639176027,1.026091355
27.05687514,-0.08648661843,1.026091355
25.75992656,-0.1062713595,1.026091355
24.40130188,-0.124865522,1.026091355
23.01035571,-0.1412861607,1.026091355
21.61937613,-0.1546107812,1.026091355
20.2606573,-0.1640123797,1.026091355
18.96356754,-0.1689937673,1.026091355
17.75216882,-0.1693039504,1.026091355
16.64375577,-0.1651040422,1.026091355
15.64844345,-0.1567394477,1.026091355
14.76965951,-0.1448200084,1.026091355
14.00527256,-0.1299148655,1.026091355
13.34899953,-0.1126690391,1.026091355
12.79184798,-0.09354507264,1.026091355
12.32338161,-0.07275763007,1.026091355
11.93272411,-0.05024379074,1.026091355
11.60932767,-0.02524562673,1.026091355
11.34367088,0.004950808499,1.026091355
11.13935303,0.06792865754,1.026091355
11.34367088,0.1309065066,1.026091355
11.60932767,0.1611029418,1.026091355
11.93272411,0.1861011058,1.026091355
12.32338161,0.2086149452,1.026091355
12.79184798,0.2294023877,1.026091355
13.34899953,0.2485263542,1.026091355
14.00527256,0.2657721806,1.026091355
14.76965951,0.2806773235,1.026091355
15.64844345,0.2925967628,1.026091355
16.64375577,0.3009613573,1.026091355
17.75216882,0.3051612655,1.026091355
18.96356754,0.3048510823,1.026091355
20.2606573,0.2998696948,1.026091355
21.61937613,0.2904680963,1.026091355
23.01035571,0.2771434758,1.026091355
24.40130188,0.2607228371,1.026091355
25.75992656,0.2421286746,1.026091355
27.05687514,0.2223439335,1.026091355
28.26810795,0.2022490754,1.026091355
29.37635534,0.1826078882,1.026091355
30.37152982,0.1640046274,1.026091355
31.25022694,0.146830002,1.026091355
32.0146035,0.1313249729,1.026091355
32.67096072,0.1175918278,1.026091355
33.22831299,0.1056183162,1.026091355
33.69712964,0.09531936067,1.026091355
34.08834094,0.08656284986,1.026091355
34.41262571,0.07919045815,1.026091355
34.67995229,0.07303424936,1.026091355
34.89351245,0.05623915837,1.360834814
34.68093389,0.05154922828,1.360834814
34.42188445,0.04589355363,1.360834814
34.1076406,0.03911960365,1.360834814
33.72854279,0.031072467,1.360834814
33.27424301,0.02160579598,1.360834814
32.7341497,0.0105969986,1.360834814
32.09811794,-0.002033680528,1.360834814
31.35741285,-0.01629949398,1.360834814
30.50592874,-0.03210900434,1.360834814
29.54157607,-0.04924382151,1.360834814
28.46765435,-0.06734821576,1.360834814
27.29393915,-0.08588907323,1.360834814
26.03716574,-0.1041684655,1.360834814
24.72062956,-0.1213809747,1.360834814
23.37277611,-0.1366267987,1.360834814
22.02489313,-0.1490603646,1.360834814
20.70827367,-0.1579229872,1.360834814
19.45137507,-0.162759204,1.360834814
18.27751234,-0.1633291117,1.360834814
17.20344243,-0.159775667,1.360834814
16.23896482,-0.1524159282,1.360834814
15.3873993,-0.1418002216,1.360834814
14.64667843,-0.1284464995,1.360834814
14.01071234,-0.1129419751,1.360834814
13.47078511,-0.09571004705,1.360834814
13.01678039,-0.07694741399,1.360834814
12.63815287,-0.05660310363,1.360834814
12.32466703,-0.03399326427,1.360834814
12.06704671,-0.006665614313,1.360834814
11.8676365,0.05065502951,1.360834814
12.06701888,0.1080723867,1.360834814
12.32462592,0.1355249872,1.360834814
12.63810076,0.1582868741,1.360834814
13.01671836,0.1788148281,1.360834814
13.47071393,0.1977976652,1.360834814
14.01063274,0.2152914725,1.360834814
14.64659124,0.2311044581,1.360834814
15.38730554,0.244817451,1.360834814
16.23886581,0.2558461919,1.360834814
17.20333973,0.263673731,1.360834814
18.27740779,0.2677481322,1.360834814
19.45127066,0.267747584,1.360834814
20.70817146,0.2635210022,1.360834814
22.02479507,0.2552969815,1.360834814
23.37268392,0.2435171818,1.360834814
24.72054461,0.2289251098,1.360834814
26.03708898,0.2123511632,1.360834814
27.29387111,0.1946813468,1.360834814
28.46759516,0.1767097794,1.360834814
29.54152554,0.1591262723,1.360834814
30.5058864,0.1424591978,1.360834814
31.35737808,0.1270626853,1.360834814
32.09809,0.1131561382,1.360834814
32.73412781,0.1008339555,1.360834814
33.27422641,0.09008712128,1.360834814
33.72853072,0.08084080071,1.360834814
34.10763239,0.07297753909,1.360834814
34.42187949,0.06635600783,1.360834814
34.68093164,0.06082598078,1.360834814
34.88770187,0.0445496592,1.695578274
34.68273453,0.04029804165,1.695578274
34.4329603,0.03517054237,1.695578274
34.1299681,0.02902862139,1.695578274
33.76444436,0.02173145943,1.695578274
33.32641179,0.01314584291,1.695578274
32.80565828,0.003159900227,1.695578274
32.19240248,-0.008299626565,1.695578274
31.47822262,-0.02124594423,1.695578274
30.65723208,-0.03559766667,1.695578274
29.72741664,-0.05115857859,1.695578274
28.69195813,-0.06760809465,1.695578274
27.56028259,-0.08446507381,1.695578274
26.34852642,-0.1010990145,1.695578274
25.07915113,-0.1167818257,1.695578274
23.77958354,-0.1306996959,1.695578274
22.4799906,-0.1420871992,1.695578274
21.21054374,-0.1502572435,1.695578274
19.99867979,-0.1547990119,1.695578274
18.86687706,-0.1554868041,1.695578274
17.83129035,-0.1524474936,1.695578274
16.90136589,-0.1459707781,1.695578274
16.08030287,-0.1365484385,1.695578274
15.36610581,-0.1246472985,1.695578274
14.75290157,-0.1107964294,1.695578274
14.2322844,-0.09537923056,1.695578274
13.79449714,-0.07857339727,1.695578274
13.4293665,-0.06033833715,1.695578274
13.12700979,-0.04006243526,1.695578274
12.87843549,-0.01555157545,1.695578274
12.68480498,0.03616168238,1.695578274
12.87839636,0.08802122779,1.695578274
13.12695207,0.1127198971,1.695578274
13.42929337,0.1332242463,1.695578274
13.79441014,0.1517351848,1.695578274
14.23218457,0.1688717944,1.695578274
14.75278994,0.184682354,1.695578274
15.36598354,0.1989965409,1.695578274
16.0801714,0.2114373069,1.695578274
16.90122707,0.2214800184,1.695578274
17.83114637,0.2286593596,1.695578274
18.86673049,0.2324811325,1.695578274
19.99853342,0.2326485023,1.695578274
21.21040046,0.2290223891,1.695578274
22.47985313,0.2218115094,1.695578274
23.7794543,0.211405949,1.695578274
25.07903203,0.1984700035,1.695578274
26.34841881,0.1837463048,1.695578274
27.5601872,0.1680279414,1.695578274
28.69187516,0.1520260327,1.695578274
29.7273458,0.1363588877,1.695578274
30.65717273,0.1215005255,1.695578274
31.47817388,0.107769127,1.695578274
32.19236332,0.09536242935,1.695578274
32.8056276,0.08436626651,1.695578274
33.32638851,0.07477379495,1.695578274
33.76442744,0.06651914729,1.695578274
34.12995659,0.05949816796,1.695578274
34.43295334,0.05358518203,1.695578274
34.68273137,0.04864640736,1.695578274
34.8818913,0.03286016003,2.030321733
34.68569055,0.0290828108,2.030321733
34.44659948,0.02452730592,2.030321733
34.15656687,0.01907057376,2.030321733
33.80667764,0.01258752403,2.030321733
33.38738141,0.004959831826,2.030321733
32.88890312,-0.003911856692,2.030321733
32.3018801,-0.0140925784,2.030321733
31.61825118,-0.02559400712,2.030321733
30.83238199,-0.03834376287,2.030321733
29.94234497,-0.05216743683,2.030321733
28.95118636,-0.06678012929,2.030321733
27.86792953,-0.08175430491,2.030321733
26.70802109,-0.09652970053,2.030321733
25.49296201,-0.1104594665,2.030321733
24.24900592,-0.1228205706,2.030321733
23.00502899,-0.1329330106,2.030321733
21.78991105,-0.1401865559,2.030321733
20.62991387,-0.1442195828,2.030321733
19.54655246,-0.1448250983,2.030321733
18.55528851,-0.1421166963,2.030321733
17.66516185,-0.1363579032,2.030321733
16.87923308,-0.1279828036,2.030321733
16.19559004,-0.1174067325,2.030321733
15.60860944,-0.1050996354,2.030321733
15.11024322,-0.09140335611,2.030321733
14.69114863,-0.07647494163,2.030321733
14.34158223,-0.06028206146,2.030321733
14.05207112,-0.04228336117,2.030321733
13.81396329,-0.02054020652,2.030321733
13.62732196,0.02558917667,2.030321733
13.81393169,0.07184624545,2.030321733
14.05202458,0.09375230378,2.030321733
14.34152331,0.1119490778,2.030321733
14.69107855,0.1283811207,2.030321733
15.11016283,0.1435962681,2.030321733
15.60851956,0.1576335168,2.030321733
16.19549161,0.1703422117,2.030321733
16.87912725,0.1813860157,2.030321733
17.66505011,0.1902988306,2.030321733
18.55517262,0.1966666297,2.030321733
19.54643448,0.2000532347,2.030321733
20.62979605,0.2001889343,2.030321733
21.78979572,0.1969495559,2.030321733
23.00491834,0.1905273725,2.030321733
24.2489019,0.1812660398,2.030321733
25.49286615,0.1697560293,2.030321733
26.70793447,0.1566575865,2.030321733
27.86785276,0.1426757812,2.030321733
28.95111958,0.1284427525,2.030321733
29.94228795,0.114508195,2.030321733
30.83233422,0.1012934704,2.030321733
31.61821195,0.08908139409,2.030321733
32.30184858,0.07804769374,2.030321733
32.88887842,0.06826860419,2.030321733
33.38736267,0.05973796695,2.030321733
33.80666402,0.0523971509,2.030321733
34.15655761,0.04615349013,2.030321733
34.44659388,0.04089519395,2.030321733
34.68568801,0.03650327162,2.030321733
34.87608072,0.02117066085,2.365065192
34.69046053,0.01793059081,2.365065192
34.46426313,0.01402378596,2.365065192
34.18987158,0.009345175295,2.365065192
33.85885171,0.003788182706,2.365065192
33.46216837,-0.002747670496,2.365065192
32.99057392,-0.01034622965,2.365065192
32.43521093,-0.0190614963,2.365065192
31.78845335,-0.02890126215,2.365065192
31.04497114,-0.03980064564,2.365065192
30.20294124,-0.05160677799,2.365065192
29.26524616,-0.06407179935,2.365065192
28.24042317,-0.07682509767,2.365065192
27.14308631,-0.08938204625,2.365065192
25.9935773,-0.1011843182,2.365065192
24.8167339,-0.1116084459,2.365065192
23.6398746,-0.1200693213,2.365065192
22.49032079,-0.1260429155,2.365065192
21.39291645,-0.12922464,2.365065192
20.36801455,-0.1294334677,2.365065192
19.43024078,-0.1267739169,2.365065192
18.58814514,-0.1214848819,2.365065192
17.84462139,-0.1139432328,2.365065192
17.19785845,-0.104511524,2.365065192
16.64253492,-0.09359819246,2.365065192
16.17103496,-0.08150050835,2.365065192
15.7745169,-0.06835199398,2.365065192
15.44375783,-0.05412541073,2.365065192
15.16978366,-0.03834757814,2.365065192
14.94436689,-0.01933483218,2.365065192
14.76658072,0.02117066085,2.365065192
14.94436689,0.06167615389,2.365065192
15.16978366,0.08068889985,2.365065192
15.44375783,0.09646673244,2.365065192
15.7745169,0.1106933157,2.365065192
16.17103496,0.1238418301,2.365065192
16.64253492,0.1359395142,2.365065192
17.19785845,0.1468528457,2.365065192
17.84462139,0.1562845545,2.365065192
18.58814514,0.1638262036,2.365065192
19.43024078,0.1691152387,2.365065192
20.36801455,0.1717747894,2.365065192
21.39291645,0.1715659617,2.365065192
22.49032079,0.1683842372,2.365065192
23.6398746,0.162410643,2.365065192
24.8167339,0.1539497676,2.365065192
25.9935773,0.1435256399,2.365065192
27.14308631,0.131723368,2.365065192
28.24042317,0.1191664194,2.365065192
29.26524616,0.1064131211,2.365065192
30.20294124,0.0939480997,2.365065192
31.04497114,0.08214196735,2.365065192
31.78845335,0.07124258386,2.365065192
32.43521093,0.06140281801,2.365065192
32.99057392,0.05268755136,2.365065192
33.46216837,0.04508899221,2.365065192
33.85885171,0.038553139,2.365065192
34.18987158,0.03299614641,2.365065192
34.46426313,0.02831753575,2.365065192
34.69046053,0.0244107309,2.365065192
34.88302255,0.001108069034,2.824574091
34.71785737,-0.002125661372,2.824574091
34.51658644,-0.006029318679,2.824574091
34.27243214,-0.0107107858,2.824574091
33.97788965,-0.01628082849,2.824574091
33.62491937,-0.02284592195,2.824574091
33.20529259,-0.03049814186,2.824574091
32.71112776,-0.03930227074,2.824574091
32.13563896,-0.04927964619,2.824574091
31.47408324,-0.06038260182,2.824574091
30.72483806,-0.07247855313,2.824574091
29.89046793,-0.08534150125,2.824574091
28.97856889,-0.09862553732,2.824574091
28.00214413,-0.1118718203,2.824574091
26.97929335,-0.1245451097,2.824574091
25.93211687,-0.1360437082,2.824574091
24.88492254,-0.1457953667,2.824574091
23.86202088,-0.1532821807,2.824574091
22.88551836,-0.1581861908,2.824574091
21.97352542,-0.1603078699,2.824574091
21.1390567,-0.1597125967,2.824574091
20.38972074,-0.1565967979,2.824574091
19.72809321,-0.1512903603,2.824574091
19.15256325,-0.1441193178,2.824574091
18.65839646,-0.1354571632,2.824574091
18.23881655,-0.1255828027,2.824574091
17.88595617,-0.1146317494,2.824574091
17.59160838,-0.102597186,2.824574091
17.34778684,-0.08907501051,2.824574091
17.14716724,-0.07258258035,2.824574091
16.98889043,-0.03687519101,2.824574091
17.14701423,-0.000496188941,2.824574091
17.347562,0.01684778542,2.824574091
17.59132394,0.03140493767,2.824574091
17.88561798,0.04468899087,2.824574091
18.2384287,0.05713794792,2.824574091
18.6579629,0.06879346713,2.824574091
19.15208847,0.07955343603,2.824574091
19.7275828,0.08916771826,2.824574091
20.38918184,0.09728292354,2.824574091
21.13849782,0.1035798593,2.824574091
21.97295649,0.1077177075,2.824574091
22.88495023,0.1094677423,2.824574091
23.86146476,0.1087093344,2.824574091
24.88438899,0.1055651248,2.824574091
25.93161528,0.1002592211,2.824574091
26.97883113,0.09320631729,2.824574091
28.0017265,0.08487546305,2.824574091
28.9781987,0.07577452738,2.824574091
29.89014591,0.06636190713,2.824574091
30.72456314,0.05704123665,2.824574091
31.47385291,0.04812617404,2.824574091
32.13544981,0.03983182906,2.824574091
32.71097577,0.03229767314,2.824574091
33.20517353,0.0255915076,2.824574091
33.62482902,0.01972080336,2.824574091
33.97782398,0.01465423808,2.824574091
34.27238747,0.01033467043,2.824574091
34.51655944,0.00668975674,2.824574091
34.71784513,0.003640592536,2.824574091
34.88996438,-0.01895452279,3.28408299
34.73807864,-0.02202832831,3.28408299
34.55299008,-0.02574007324,3.28408299
34.32846596,-0.03019307275,3.28408299
34.05760486,-0.0354937335,3.28408299
33.73301353,-0.04174484039,3.28408299
33.34712482,-0.04903605093,3.28408299
32.8926908,-0.05743171327,3.28408299
32.3634711,-0.06695555958,3.28408299
31.75510399,-0.07756662788,3.28408299
31.06609731,-0.0891439747,3.28408299
30.29880926,-0.1014782159,3.28408299
29.46022505,-0.1142466493,3.28408299
28.56230225,-0.1270194444,3.28408299
27.62168523,-0.1392934262,3.28408299
26.65869733,-0.1505018823,3.28408299
25.69569196,-0.1601038441,3.28408299
24.75502501,-0.1676083176,3.28408299
23.85702565,-0.1727095151,3.28408299
23.01834832,-0.1752129806,3.28408299
22.25096146,-0.1751709549,3.28408299
21.56186208,-0.1727594661,3.28408299
20.953419,-0.1682803215,3.28408299
20.42415105,-0.1620343213,3.28408299
19.96970466,-0.1543678007,3.28408299
19.58384844,-0.1455413491,3.28408299
19.25934756,-0.1356843507,3.28408299
18.98865485,-0.1247955065,3.28408299
18.76442572,-0.1125080369,3.28408299
18.57992377,-0.09746292369,3.28408299
18.43434907,-0.06472188048,3.28408299
18.5797394,-0.03117158761,3.28408299
18.7641548,-0.01510041907,3.28408299
18.98831211,-0.001565869847,3.28408299
19.25894007,0.01082852831,3.28408299
19.5833811,0.02249040344,3.28408299
19.96918225,0.03346303545,3.28408299
20.42357897,0.04365728575,3.28408299
20.95280399,0.05284723093,3.28408299
21.56121274,0.06071075778,3.28408299
22.25028804,0.06695530981,3.28408299
23.0176628,0.07126590786,3.28408299
