x,y,z
9.44278819,2.770063333,-17.93527806
9.326490272,2.769181853,-17.9501923
9.148246962,2.76781088,-17.97181963
8.893217331,2.765880544,-18.00024735
8.562045311,2.763591055,-18.03247607
8.182171974,2.761584151,-18.06134654
7.803821944,2.760688773,-18.07746139
7.476754201,2.761248122,-18.07480915
7.227710335,2.762897137,-18.05456911
7.057402458,2.765079157,-18.02207704
6.953529022,2.767566924,-17.98027448
12.69800373,2.180377662,0.9430494367
12.55581757,2.176889644,0.9430494367
12.3274143,2.171351495,0.9430494367
11.97660076,2.162846575,0.9430494367
11.47322456,2.150486645,0.9430494367
10.81720928,2.134986785,0.9430494367
10.06167119,2.123152479,0.9430494367
9.306227185,2.131096284,0.9430494367
8.651963717,2.175277877,0.9430494367
8.15606882,2.258236186,0.9430494367
7.82467494,2.370143084,0.9430494367
7.640330315,2.501304251,0.9430494367
7.588626866,2.630260855,0.9430494367
7.642047953,2.761862193,0.9430494367
7.833073724,2.892623865,0.9430494367
8.17529957,2.995841575,0.9430494367
8.68569862,3.051323459,0.9430494367
9.354739618,3.03341648,0.9430494367
10.11901999,2.932589081,0.9430494367
10.87306294,2.771689664,0.9430494367
11.51862457,2.593985151,0.9430494367
12.0077313,2.436599322,0.9430494367
12.34508984,2.316537515,0.9430494367
12.56304357,2.233767873,0.9430494367
12.50575586,2.34636949,1.886098873
12.36840296,2.342543496,1.886098873
12.14776739,2.336384795,1.886098873
11.80889455,2.326747244,1.886098873
11.32267574,2.31238748,1.886098873
10.6890644,2.293566666,1.886098873
9.959367843,2.276628406,1.886098873
9.229695138,2.277386715,1.886098873
8.597431456,2.31250448,1.886098873
8.117543043,2.385368164,1.886098873
7.795738826,2.487162909,1.886098873
7.614834794,2.609050218,1.886098873
7.562004266,2.731983655,1.886098873
7.613434671,2.859083878,1.886098873
7.798056611,2.985529766,1.886098873
8.12819097,3.08720562,1.886098873
8.620829061,3.145238437,1.886098873
9.267309755,3.134817892,1.886098873
10.00666063,3.045788916,1.886098873
10.7367811,2.898647528,1.886098873
11.36226757,2.733903682,1.886098873
11.83637167,2.586952058,1.886098873
12.16347936,2.474392976,1.886098873
12.37485292,2.39661154,1.886098873
12.313508,2.512361317,2.82914831
12.18098834,2.508197348,2.82914831
11.96812048,2.501418095,2.82914831
11.64118835,2.490647913,2.82914831
11.17212691,2.474288315,2.82914831
10.56091951,2.452146547,2.82914831
9.857064493,2.430104333,2.82914831
9.153163091,2.423677145,2.82914831
8.542899196,2.449731082,2.82914831
8.079017265,2.512500141,2.82914831
7.766802712,2.604182735,2.82914831
7.589339273,2.716796185,2.82914831
7.535381665,2.833706455,2.82914831
7.584821388,2.956305562,2.82914831
7.763039498,3.078435667,2.82914831
8.08108237,3.178569665,2.82914831
8.555959502,3.239153415,2.82914831
9.179879891,3.236219304,2.82914831
9.894301265,3.158988752,2.82914831
10.60049927,3.025605392,2.82914831
11.20591057,2.873822212,2.82914831
11.66501205,2.737304793,2.82914831
11.98186888,2.632248436,2.82914831
12.18666227,2.559455207,2.82914831
12.12126013,2.678353145,3.772197747
11.99357373,2.6738512,3.772197747
11.78847358,2.666451394,3.772197747
11.47348214,2.654548582,3.772197747
11.02157808,2.63618915,3.772197747
10.43277462,2.610726428,3.772197747
9.754761143,2.58358026,3.772197747
9.076631044,2.569967575,3.772197747
8.488366936,2.586957684,3.772197747
8.040491487,2.639632119,3.772197747
7.737866597,2.72120256,3.772197747
7.563843751,2.824542152,3.772197747
7.508759065,2.935429255,3.772197747
7.556208106,3.053527247,3.772197747
7.728022384,3.171341569,3.772197747
8.033973771,3.269933709,3.772197747
8.491089944,3.333068393,3.772197747
9.092450027,3.337620716,3.772197747
9.781941902,3.272188587,3.772197747
10.46421743,3.152563256,3.772197747
11.04955358,3.013740743,3.772197747
11.49365243,2.887657529,3.772197747
11.80025841,2.790103897,3.772197747
11.99847162,2.722298874,3.772197747
11.92901226,2.844344972,4.715247184
11.80615912,2.839505052,4.715247184
11.60882667,2.831484694,4.715247184
11.30577593,2.818449251,4.715247184
10.87102926,2.798089984,4.715247184
10.30462974,2.76930631,4.715247184
9.652457794,2.737056187,4.715247184
9.000098997,2.716258006,4.715247184
8.433834676,2.724184287,4.715247184
8.00196571,2.766764097,4.715247184
7.708930483,2.838222385,4.715247184
7.53834823,2.932288119,4.715247184
7.482136464,3.037152055,4.715247184
7.527594824,3.150748931,4.715247184
7.693005271,3.26424747,4.715247184
7.986865171,3.361297754,4.715247184
8.426220385,3.426983371,4.715247184
9.005020163,3.439022129,4.715247184
9.66958254,3.385388423,4.715247184
10.3279356,3.27952112,4.715247184
10.89319658,3.153659274,4.715247184
11.3222928,3.038010265,4.715247184
11.61864793,2.947959357,4.715247184
11.81028097,2.885142542,4.715247184
11.7367644,3.0103368,5.65829662
11.6187445,3.005158904,5.65829662
11.42917976,2.996517994,5.65829662
11.13806972,2.98234992,5.65829662
10.72048043,2.959990819,5.65829662
10.17648485,2.927886191,5.65829662
9.550154444,2.890532114,5.65829662
8.92356695,2.862548436,5.65829662
8.379302416,2.861410889,5.65829662
7.963439932,2.893896075,5.65829662
7.679994369,2.955242211,5.65829662
7.512852709,3.040034086,5.65829662
7.455513863,3.138874855,5.65829662
7.498981541,3.247970615,5.65829662
7.657988158,3.357153371,5.65829662
7.939756571,3.452661798,5.65829662
8.361350827,3.520898349,5.65829662
8.917590299,3.540423541,5.65829662
9.557223177,3.498588258,5.65829662
10.19165376,3.406478984,5.65829662
10.73683958,3.293577804,5.65829662
11.15093318,3.188363,5.65829662
11.43703745,3.105814818,5.65829662
11.62209032,3.047986209,5.65829662
11.54451653,3.176328627,6.601346057
11.43132989,3.170812756,6.601346057
11.24953285,3.161551294,6.601346057
10.97036351,3.146250589,6.601346057
10.56993161,3.121891654,6.601346057
10.04833996,3.086466072,6.601346057
9.447851094,3.044008041,6.601346057
8.847034903,3.008838866,6.601346057
8.324770155,2.998637491,6.601346057
7.924914155,3.021028052,6.601346057
7.651058255,3.072262036,6.601346057
7.487357188,3.147780052,6.601346057
7.428891263,3.240597655,6.601346057
7.470368259,3.3451923,6.601346057
7.622971044,3.450059272,6.601346057
7.892647971,3.544025843,6.601346057
8.296481268,3.614813326,6.601346057
8.830160435,3.641824953,6.601346057
9.444863815,3.611788093,6.601346057
10.05537193,3.533436848,6.601346057
10.58048259,3.433496335,6.601346057
10.97957355,3.338715736,6.601346057
11.25542698,3.263670278,6.601346057
11.43389967,3.210829876,6.601346057
11.35226866,3.342320455,7.544395494
11.24391527,3.336466608,7.544395494
11.06988594,3.326584594,7.544395494
10.8026573,3.310151258,7.544395494
10.41938278,3.283792489,7.544395494
9.920195076,3.245045953,7.544395494
9.345547744,3.197483968,7.544395494
8.770502856,3.155129297,7.544395494
8.270237895,3.135864094,7.544395494
7.886388377,3.14816003,7.544395494
7.622122141,3.189281861,7.544395494
7.461861666,3.255526019,7.544395494
7.402268662,3.342320455,7.544395494
7.441754977,3.442413984,7.544395494
7.587953931,3.542965173,7.544395494
7.845539372,3.635389887,7.544395494
8.23161171,3.708728304,7.544395494
8.742730572,3.743226365,7.544395494
9.332504452,3.724987929,7.544395494
9.91909009,3.660394712,7.544395494
10.42412559,3.573414865,7.544395494
10.80821393,3.489068471,7.544395494
11.0738165,3.421525739,7.544395494
11.24570902,3.373673543,7.544395494
11.14815725,3.278797126,8.697867965
11.04397397,3.272504982,8.697867965
10.87663204,3.262033925,8.697867965
10.61964833,3.244977362,8.697867965
10.25101948,3.218323811,8.697867965
9.770825057,3.180223462,8.697867965
9.217942303,3.13466914,8.697867965
8.664619727,3.095204659,8.697867965
8.183291519,3.07841354,8.697867965
7.81407186,3.091677152,8.697867965
7.559935522,3.131934066,8.697867965
7.405670126,3.195537946,8.697867965
7.348157254,3.278797126,8.697867965
7.387797513,3.373877723,8.697867965
7.52956378,3.467976742,8.697867965
7.777761633,3.553836219,8.697867965
8.148957132,3.621359813,8.697867965
8.639933252,3.652358262,8.697867965
9.206348265,3.634330434,8.697867965
9.769842847,3.57363724,8.697867965
10.25523531,3.492662836,8.697867965
10.62458756,3.41446473,8.697867965
10.88012587,3.351977592,8.697867965
11.04556842,3.307755263,8.697867965
10.94404585,3.215273798,9.851340437
10.84403267,3.208543355,9.851340437
10.68337814,3.197483256,9.851340437
10.43663937,3.179803466,9.851340437
10.08265619,3.152855134,9.851340437
9.621455037,3.115400971,9.851340437
9.090336861,3.071854312,9.851340437
8.558736598,3.035280022,9.851340437
8.096345143,3.020962987,9.851340437
7.741755344,3.035194274,9.851340437
7.497748903,3.07458627,9.851340437
7.349478586,3.135549872,9.851340437
7.294045846,3.215273798,9.851340437
7.333840049,3.305341462,9.851340437
7.471173629,3.392988311,9.851340437
7.709983895,3.47228255,9.851340437
8.066302554,3.533991321,9.851340437
8.537135932,3.561490158,9.851340437
9.080192078,3.54367294,9.851340437
9.620595604,3.486879767,9.851340437
10.08634504,3.411910807,9.851340437
10.44096119,3.339860989,9.851340437
10.68643524,3.282429446,9.851340437
10.84542782,3.241836983,9.851340437
10.73993444,3.151750469,11.00481291
10.64409138,3.144581729,11.00481291
10.49012424,3.132932587,11.00481291
10.2536304,3.114629569,11.00481291
9.914292889,3.087386456,11.00481291
9.472085018,3.05057848,11.00481291
8.962731419,3.009039484,11.00481291
8.452853469,2.975355385,11.00481291
8.009398767,2.963512433,11.00481291
7.669438827,2.978711395,11.00481291
7.435562285,3.017238474,11.00481291
7.293287045,3.075561799,11.00481291
7.239934439,3.151750469,11.00481291
7.279882585,3.236805201,11.00481291
7.412783479,3.31799988,11.00481291
7.642206157,3.390728881,11.00481291
7.983647977,3.44662283,11.00481291
8.434338613,3.470622055,11.00481291
8.954035891,3.453015445,11.00481291
9.471348361,3.400122295,11.00481291
9.917454762,3.331158778,11.00481291
10.25733482,3.265257248,11.00481291
10.49274461,3.212881299,11.00481291
10.64528721,3.175918703,11.00481291
10.53582303,3.08822714,12.15828538
10.44415008,3.080620102,12.15828538
10.29687034,3.068381918,12.15828538
10.07062143,3.049455673,12.15828538
9.745929592,3.021917779,12.15828538
9.322714999,2.985755989,12.15828538
8.835125977,2.946224656,12.15828538
8.34697034,2.915430747,12.15828538
7.922452391,2.906061879,12.15828538
7.59712231,2.922228517,12.15828538
7.373375666,2.959890678,12.15828538
7.237095505,3.015573725,12.15828538
7.185823031,3.08822714,12.15828538
7.225925122,3.168268941,12.15828538
7.354393328,3.243011449,12.15828538
7.574428418,3.309175212,12.15828538
7.900993399,3.359254339,12.15828538
8.331541293,3.379753951,12.15828538
8.827879704,3.36235795,12.15828538
9.322101118,3.313364822,12.15828538
9.748564486,3.250406748,12.15828538
10.07370845,3.190653507,12.15828538
10.29905399,3.143333152,12.15828538
10.44514661,3.110000423,12.15828538
10.33171162,3.024703811,13.31175785
10.24420878,3.016658476,13.31175785
10.10361644,3.003831249,13.31175785
9.887612462,2.984281777,13.31175785
9.577566295,2.956449101,13.31175785
9.17334498,2.920933498,13.31175785
8.707520535,2.883409828,13.31175785
8.241087211,2.85550611,13.31175785
7.835506015,2.848611326,13.31175785
7.524805794,2.865745639,13.31175785
7.311189048,2.902542883,13.31175785
7.180903964,2.955585651,13.31175785
7.131711623,3.024703811,13.31175785
7.171967658,3.09973268,13.31175785
7.296003177,3.168023018,13.31175785
7.50665068,3.227621543,13.31175785
7.818338821,3.271885847,13.31175785
8.228743973,3.288885847,13.31175785
8.701723516,3.271700456,13.31175785
9.172853875,3.22660735,13.31175785
9.57967421,3.169654719,13.31175785
9.890082074,3.116049766,13.31175785
10.10536336,3.073785006,13.31175785
10.245006,3.044082144,13.31175785
10.12760021,2.961180483,14.46523032
10.04426748,2.952696849,14.46523032
9.910362542,2.939280581,14.46523032
9.704603494,2.919107881,14.46523032
9.409202998,2.890980424,14.46523032
9.023974961,2.856111006,14.46523032
8.579915093,2.820595,14.46523032
8.135204082,2.795581473,14.46523032
7.748559639,2.791160772,14.46523032
7.452489277,2.809262761,14.46523032
7.249002429,2.845195087,14.46523032
7.124712424,2.895597578,14.46523032
7.077600215,2.961180483,14.46523032
7.118010194,3.031196419,14.46523032
7.237613026,3.093034587,14.46523032
7.438872942,3.146067874,14.46523032
7.735684244,3.184517356,14.46523032
8.125946654,3.198017744,14.46523032
8.575567329,3.181042961,14.46523032
9.023606632,3.139849878,14.46523032
9.410783934,3.08890269,14.46523032
9.706455703,3.041446025,14.46523032
9.911672728,3.004236859,14.46523032
10.0448654,2.978163864,14.46523032
9.923488807,2.897657154,15.61870279
9.84432618,2.888735223,15.61870279
9.717108642,2.874729912,15.61870279
9.521594526,2.853933984,15.61870279
9.240839701,2.825511746,15.61870279
8.874604941,2.791288515,15.61870279
8.452309651,2.757780172,15.61870279
8.029320953,2.735656835,15.61870279
7.661613263,2.733710219,15.61870279
7.38017276,2.752779883,15.61870279
7.186815811,2.787847291,15.61870279
7.068520884,2.835609504,15.61870279
7.023488807,2.897657154,15.61870279
7.06405273,2.962660158,15.61870279
7.179222875,3.018046156,15.61870279
7.371095204,3.064514205,15.61870279
7.653029666,3.097148864,15.61870279
8.023149334,3.10714964,15.61870279
8.449411142,3.090385467,15.61870279
8.874359389,3.053092405,15.61870279
9.241893658,3.00815066,15.61870279
9.522829332,2.966842284,15.61870279
9.7179821,2.934688713,15.61870279
9.844724792,2.912245584,15.61870279
9.719377399,2.834133825,16.77217527
9.644384881,2.824773596,16.77217527
9.523854742,2.810179243,16.77217527
9.338585558,2.788760088,16.77217527
9.072476404,2.760043069,16.77217527
8.725234922,2.726466024,16.77217527
8.324704209,2.694965344,16.77217527
7.923437824,2.675732198,16.77217527
7.574666887,2.676259665,16.77217527
7.307856244,2.696297004,16.77217527
7.124629192,2.730499496,16.77217527
7.012329343,2.775621431,16.77217527
6.969377399,2.834133825,16.77217527
7.010095267,2.894123897,16.77217527
7.120832724,2.943057725,16.77217527
7.303317465,2.982960536,16.77217527
7.570375088,3.009780373,16.77217527
7.920352014,3.016281537,16.77217527
8.323254955,2.999727972,16.77217527
8.725112146,2.966334933,16.77217527
9.073003382,2.927398631,16.77217527
9.339202961,2.892238543,16.77217527
9.524291471,2.865140566,16.77217527
9.644584187,2.846327304,16.77217527
9.515265991,2.770610497,17.92564774
9.444443582,2.76081197,17.92564774
9.330600842,2.745628574,17.92564774
9.15557659,2.723586192,17.92564774
8.904113106,2.694574392,17.92564774
8.575864903,2.661643533,17.92564774
8.197098768,2.632150516,17.92564774
7.817554695,2.61580756,17.92564774
7.487720511,2.618809112,17.92564774
7.235539727,2.639814126,17.92564774
7.062442573,2.6731517,17.92564774
6.956137803,2.715633357,17.92564774
6.915265991,2.770610497,17.92564774
6.956137803,2.825587636,17.92564774
7.062442573,2.868069293,17.92564774
7.235539727,2.901406867,17.92564774
7.487720511,2.922411882,17.92564774
7.817554695,2.925413433,17.92564774
8.197098768,2.909070478,17.92564774
8.575864903,2.87957746,17.92564774
8.904113106,2.846646602,17.92564774
9.15557659,2.817634802,17.92564774
9.330600842,2.795592419,17.92564774
9.444443582,2.780409024,17.92564774
9.443273364,2.763300491,17.93245693
9.327695105,2.751958112,17.94300401
9.150395114,2.735453021,17.95830385
8.896408341,2.713684558,17.97842369
8.566084095,2.688966821,18.00124602
8.186515305,2.66691444,18.02170056
7.807790743,2.654867298,18.03312044
7.479899983,2.657349564,18.03123678
7.229945969,2.673178793,18.01688926
7.05884377,2.698057718,17.99387155
6.954281809,2.729662782,17.96428117
6.954303976,2.807253427,17.96427755
7.058910337,2.835337224,17.99385753
7.230053007,2.857125936,18.01686105
7.480018337,2.870619082,18.03119519
7.807879387,2.872309097,18.03307335
8.18655519,2.861530871,18.02165988
8.566090013,2.84232116,18.00121916
8.896403317,2.820844836,17.97840996
9.150390844,2.801808117,17.9582984
9.327693409,2.787242491,17.94300241
9.443272944,2.777146769,17.93245659
9.44278819,2.770063333,17.93527806
9.326490272,2.769181853,17.9501923
9.148246962,2.76781088,17.97181963
8.893217331,2.765880544,18.00024735
8.562045311,2.763591055,18.03247607
8.182171974,2.761584151,18.06134654
7.803821944,2.760688773,18.07746139
7.476754201,2.761248122,18.07480915
7.227710335,2.762897137,18.05456911
7.057402458,2.765079157,18.02207704
6.953529022,2.767566924,17.98027448
0.0,-0.1538060462,-0.7
-0.09839307742,-0.2463700566,-0.5740689523
-0.1360954007,-0.1538060462,-0.5468071758
-0.1704974905,-0.3118320342,-0.4034542118
-0.2339396702,-0.1538060462,-0.3694355001
-0.2148995934,-0.3508822848,-0.2169883586
-0.2932667481,-0.1538060462,-0.1967206056
-0.234897466,-0.3651212994,-6.409672504e-17
-0.320079661,-0.1538060462,-8.11264255e-17
-0.2932667481,-0.1538060462,0.1967206056
-0.2148995934,-0.3508822848,0.2169883586
-0.2339396702,-0.1538060462,0.3694355001
-0.1704974905,-0.3118320342,0.4034542118
-0.1360954007,-0.1538060462,0.5468071758
-0.09839307742,-0.2463700566,0.5740689523
0.0,-0.1538060462,0.7
-0.09839307742,-0.06124203584,0.5740689523
-0.1704974905,0.004219941835,0.4034542118
-0.2148995934,0.04327019244,0.2169883586
-0.234897466,0.05750920702,-5.497608152e-17
-0.2148995934,0.04327019244,-0.2169883586
-0.1704974905,0.004219941835,-0.4034542118
-0.09839307742,-0.06124203584,-0.5740689523
-2.775557562e-17,-0.3094417066,-0.6449541352
0.0,-0.4365932999,-0.4948776939
0.0,-0.5223512663,-0.2723624057
0.0,-0.5538060462,-1.643460219e-32
0.0,-0.5223512663,0.2723624057
0.0,-0.4365932999,0.4948776939
-2.775557562e-17,-0.3094417066,0.6449541352
0.0,0.001829614188,0.6449541352
0.0,0.1289812075,0.4948776939
-2.775557562e-17,0.2147391739,0.2723624057
0.0,0.2461939538,-0.0
0.0,0.2147391739,-0.2723624057
0.0,0.1289812075,-0.4948776939
-2.775557562e-17,0.001829614188,-0.6449541352
0.5198274384,-0.1414626107,-1.032447705
0.5224806228,-0.4200006736,-0.9486322093
0.5283489303,-0.6458482287,-0.7233493596
0.5338782527,-0.7926263774,-0.3959138867
0.5362944923,-0.8444887124,5.75671198e-17
0.5338782527,-0.7926263774,0.3959138867
0.5283489303,-0.6458482287,0.7233493596
0.5224806228,-0.4200006736,0.9486322093
0.5198274384,-0.1414626107,1.032447705
0.5228784802,0.1366728635,0.947728128
0.5290828196,0.36160798,0.7220343323
0.5348317261,0.507429118,0.3950098054
0.5373252946,0.5588442921,3.96634701e-17
0.5348317261,0.507429118,-0.3950098054
0.5290828196,0.36160798,-0.7220343323
0.5228784802,0.1366728635,-0.947728128
1.182990072,-0.1185390877,-1.34623673
1.183758577,-0.5146608955,-1.240297663
1.185877994,-0.8377135314,-0.9509028877
1.187929613,-1.054319859,-0.523130353
1.188834399,-1.133322508,2.87835599e-17
1.187929613,-1.054319859,0.523130353
1.185877994,-0.8377135314,0.9509028877
1.183758577,-0.5146608955,1.240297663
1.182990072,-0.1185390877,1.34623673
1.184554292,0.2767775427,1.2384895
1.187345773,0.5980053015,0.9482728332
1.189836559,0.8126976079,0.5213221905
1.190896004,0.8908059352,2.64423134e-17
1.189836559,0.8126976079,-0.5213221905
1.187345773,0.5980053015,-0.9482728332
1.184554292,0.2767775427,-1.2384895
1.759130435,-0.1061956522,-1.5875
1.759130435,-0.5925570909,-1.462663842
1.759130435,-0.9899058199,-1.122311913
1.759130435,-1.257899465,-0.6176790271
1.759130435,-1.356195652,-0.0
1.759130435,-1.257899465,0.6176790271
1.759130435,-0.9899058199,1.122311913
1.759130435,-0.5925570909,1.462663842
1.759130435,-0.1061956522,1.5875
1.759130435,0.3801657865,1.462663842
1.759130435,0.7775145156,1.122311913
1.759130435,1.045508161,0.6176790271
1.759130435,1.143804348,-8.217301096e-33
1.759130435,1.045508161,-0.6176790271
1.759130435,0.7775145156,-1.122311913
1.759130435,0.3801657865,-1.462663842
2.328439759,-0.08097474783,-1.763753879
2.329327243,-0.6457017424,-1.622853633
2.33075007,-1.106075259,-1.242196286
2.332051816,-1.413354406,-0.6821193202
2.332619527,-1.524913444,1.509903313e-17
2.332051816,-1.413354406,0.6821193202
2.33075007,-1.106075259,1.242196286
2.329327243,-0.6457017424,1.622853633
2.328439759,-0.08097474783,1.763753879
2.328556567,0.484290686,1.624068244
2.329353241,0.9458924707,1.243962993
2.330287763,1.25447272,0.6833339311
2.33074111,1.366643033,1.999038893e-17
2.330287763,1.25447272,-0.6833339311
2.329353241,0.9458924707,-1.243962993
2.328556567,0.484290686,-1.624068244
3.191703937,-0.0208325913,-1.972198724
3.192759099,-0.6941989806,-1.814065453
3.194681139,-1.242151821,-1.387131536
3.196532811,-1.606360835,-0.761352873
3.197362346,-1.738067346,5.329070518e-18
3.196532811,-1.606360835,0.761352873
3.194681139,-1.242151821,1.387131536
3.192759099,-0.6941989806,1.814065453
3.191703937,-0.0208325913,1.972198724
3.192165813,0.6524099325,1.813803654
3.193661053,1.200105841,1.386750738
3.195359659,1.564083877,0.7610910749
3.19618016,1.695692476,1.713461908e-17
3.195359659,1.564083877,-0.7610910749
3.193661053,1.200105841,-1.386750738
3.192165813,0.6524099325,-1.813803654
4.17595145,0.05094998261,-2.181266629
4.176730546,-0.7377855432,-2.006953347
4.178440386,-1.379315032,-1.53486802
4.180191112,-1.806109763,-0.8428979414
4.180998614,-1.960611482,-1.199040867e-17
4.180191112,-1.806109763,0.8428979414
4.178440386,-1.379315032,1.53486802
4.176730546,-0.7377855432,2.006953347
4.17595145,0.05094998261,2.181266629
4.176699989,0.8386301186,2.004607834
4.178495458,1.477803343,1.531456365
4.180490887,1.902184463,0.8405524287
4.181451868,2.055573446,4.283654771e-18
4.180490887,1.902184463,-0.8405524287
4.178495458,1.477803343,-1.531456365
4.176699989,0.8386301186,-2.004607834
5.108210776,0.1110921391,-2.35938969
5.108546131,-0.7761981682,-2.172171364
5.109544557,-1.498744423,-1.663156099
5.11064441,-1.981792204,-0.9142727813
5.111168057,-2.157499977,-1.953992523e-17
5.11064441,-1.981792204,0.9142727813
5.109544557,-1.498744423,1.663156099
5.108546131,-0.7761981682,2.172171364
5.108210776,0.1110921391,2.35938969
5.108900912,0.997057837,2.169218545
5.110298043,1.716633693,1.658861091
5.111826212,2.196617312,0.9113199632
5.112560519,2.370906712,-5.711539694e-18
5.111826212,2.196617312,-0.9113199632
5.110298043,1.716633693,-1.658861091
5.108900912,0.997057837,-2.169218545
5.815510397,0.1363130435,-2.475
5.815510397,-0.8091735934,-2.28037355
5.815510397,-1.581619523,-1.749746132
5.815510397,-2.102599169,-0.9629956486
5.815510397,-2.293686957,-8.217301096e-33
5.815510397,-2.102599169,0.9629956486
5.815510397,-1.581619523,1.749746132
5.815510397,-0.8091735934,2.28037355
5.815510397,0.1363130435,2.475
5.815510397,1.08179968,2.28037355
5.815510397,1.85424561,1.749746132
5.815510397,2.375225256,0.9629956486
5.815510397,2.566313043,-4.108650548e-33
5.815510397,2.375225256,-0.9629956486
5.815510397,1.85424561,-1.749746132
5.815510397,1.08179968,-2.28037355
6.48593743,0.1395279721,-2.57683406
6.48572113,-0.83819051,-2.376881797
6.484829084,-1.640648094,-1.829111517
6.483856748,-2.188115871,-1.008201158
6.483400152,-2.391049244,2.374402758e-17
6.483856748,-2.188115871,1.008201158
6.484829084,-1.640648094,1.829111517
6.48572113,-0.83819051,2.376881797
6.48593743,0.1395279721,2.57683406
6.485079586,1.118956477,2.380697974
6.483536865,1.925254841,1.834662319
6.481955012,2.476694615,1.012017335
6.481218043,2.681469228,1.106819979e-17
6.481955012,2.476694615,-1.012017335
6.483536865,1.925254841,-1.834662319
6.485079586,1.118956477,-2.380697974
7.155606281,0.1466008152,-2.685518369
7.155265906,-0.8542593712,-2.479131114
7.154226116,-1.677369921,-1.910574333
7.153246587,-2.241946278,-1.054157335
7.152824247,-2.4522456,1.474514955e-17
7.153246587,-2.241946278,1.054157335
7.154226116,-1.677369921,1.910574333
7.155265906,-0.8542593712,2.479131114
7.155606281,0.1466008152,2.685518369
7.154695645,1.148981022,2.482523272
7.153077477,1.975505599,1.91550838
7.151556156,2.543612619,1.057549492
7.150884594,2.755548599,7.204497498e-18
7.151556156,2.543612619,-1.057549492
7.153077477,1.975505599,-1.91550838
7.154695645,1.148981022,-2.482523272
7.826458312,0.1536736583,-2.782693493
7.82616405,-0.864041361,-2.568379435
7.825496411,-1.699955911,-1.977901312
7.824999454,-2.271634213,-1.091009777
7.824822539,-2.484018747,-1.626303259e-18
7.824999454,-2.271634213,1.091009777
7.825496411,-1.699955911,1.977901312
7.82616405,-0.864041361,2.568379435
7.826458312,0.1536736583,2.782693493
7.825950202,1.171958685,2.569651494
7.825065671,2.009153495,1.979751579
7.824365542,2.582155796,1.092281836
7.824095169,2.795154077,-2.614535382e-19
7.824365542,2.582155796,-1.092281836
7.825065671,2.009153495,-1.979751579
7.825950202,1.171958685,-2.569651494
8.500434885,0.156888587,-2.85
8.500434885,-0.8741976631,-2.625884693
8.500434885,-1.716576969,-2.014859182
8.500434885,-2.284723496,-1.10890408
8.500434885,-2.493111413,-0.0
8.500434885,-2.284723496,1.10890408
8.500434885,-1.716576969,2.014859182
8.500434885,-0.8741976631,2.625884693
8.500434885,0.156888587,2.85
8.500434885,1.187974837,2.625884693
8.500434885,2.030354143,2.014859182
8.500434885,2.59850067,1.10890408
8.500434885,2.806888587,-2.054325274e-33
8.500434885,2.59850067,-1.10890408
8.500434885,2.030354143,-2.014859182
8.500434885,1.187974837,-2.625884693
9.21970583,0.1538209069,-2.881469793
9.219796123,-0.8742567697,-2.650151579
9.220429854,-1.710879579,-2.028186867
9.220949786,-2.270232107,-1.114242008
9.221145134,-2.47374128,1.463672933e-17
9.220949786,-2.270232107,1.114242008
9.220429854,-1.710879579,2.028186867
9.219796123,-0.8742567697,2.650151579
9.21970583,0.1538209069,2.881469793
9.220678427,1.183976442,2.654779346
9.222235772,2.025252691,2.034918165
9.223661446,2.589395574,1.118869775
9.224283518,2.795119523,1.699447999e-17
9.223661446,2.589395574,-1.118869775
9.222235772,2.025252691,-2.034918165
9.220678427,1.183976442,-2.654779346
9.997268533,0.1470720109,-2.879333729
9.997064989,-0.8537002951,-2.647531991
9.998014358,-1.668983596,-2.028146047
9.999055153,-2.217377245,-1.11476571
9.999526648,-2.41809382,1.994931997e-17
9.999055153,-2.217377245,1.11476571
9.998014358,-1.668983596,2.028146047
9.997064989,-0.8537002951,2.647531991
9.997268533,0.1470720109,2.879333729
9.999417799,1.153385273,2.659872703
10.00283014,1.981077744,2.046096174
10.00628625,2.542245676,1.127106422
10.00789567,2.74886832,3.741690636e-17
10.00628625,2.542245676,-1.127106422
10.00283014,1.981077744,-2.046096174
9.999417799,1.153385273,-2.659872703
10.79130569,0.1403231148,-2.8375308
10.79091008,-0.8191191062,-2.611054678
10.7917004,-1.602769977,-2.003787591
10.79274167,-2.134001568,-1.102631369
10.79325356,-2.329863445,1.528725063e-17
10.79274167,-2.134001568,1.102631369
10.7917004,-1.602769977,2.003787591
10.79091008,-0.8191191062,2.611054678
10.79130569,0.1403231148,2.8375308
10.79355699,1.105998911,2.624937979
10.79711816,1.903610099,2.023981484
10.80087665,2.449212759,1.11651467
10.80266871,2.651718963,3.913087956e-17
10.80087665,2.449212759,-1.11651467
10.79711816,1.903610099,-2.023981484
10.79355699,1.105998911,-2.624937979
11.56,0.1372554348,-2.75
11.56,-0.77710407,-2.533748388
11.56,-1.524119681,-1.944162369
11.56,-2.027947733,-1.069995165
11.56,-2.212744565,-0.0
11.56,-2.027947733,1.069995165
11.56,-1.524119681,1.944162369
11.56,-0.77710407,2.533748388
11.56,0.1372554348,2.75
11.56,1.05161494,2.533748388
11.56,1.79863055,1.944162369
11.56,2.302458603,1.069995165
11.56,2.487255435,-0.0
11.56,2.302458603,-1.069995165
11.56,1.79863055,-1.944162369
11.56,1.05161494,-2.533748388
12.31082453,0.1145546026,-2.593427425
12.31068084,-0.7511608667,-2.389166048
12.30921635,-1.455973688,-1.828461196
12.30761055,-1.924269178,-1.00479484
12.30686313,-2.09353218,5.204170428e-18
12.30761055,-1.924269178,1.00479484
12.30921635,-1.455973688,1.828461196
12.31068084,-0.7511608667,2.389166048
12.31082453,0.1145546026,2.593427425
12.30878367,0.9752450004,2.377997815
12.3051372,1.66883819,1.812216493
12.30112379,2.125639925,0.993626607
12.29917843,2.289603732,-3.764930951e-17
12.30112379,2.125639925,-0.993626607
12.3051372,1.66883819,-1.812216493
12.30878367,0.9752450004,-2.377997815
13.06094831,0.06461277174,-2.378221537
13.05971371,-0.7449204541,-2.186815805
13.05696656,-1.401536903,-1.669403014
13.05442034,-1.834208743,-0.9156900968
13.05332075,-1.989366976,3.469446952e-17
13.05442034,-1.834208743,0.9156900968
13.05696656,-1.401536903,1.669403014
13.05971371,-0.7449204541,2.186815805
13.06094831,0.06461277174,2.378221537
13.05936021,0.8718277186,2.181715273
13.05572038,1.523343492,1.661984059
13.0515845,1.950913886,0.9105895652
13.04956628,2.103753069,-3.34660529e-17
13.0515845,1.950913886,-0.9105895652
13.05572038,1.523343492,-1.661984059
13.05936021,0.8718277186,-2.181715273
13.78309793,0.0146709409,-2.14890488
13.78138972,-0.7351616156,-1.973659244
13.77873349,-1.34308617,-1.506330883
13.77651995,-1.744893197,-0.8259200574
13.775618,-1.889461898,4.683753385e-17
13.77651995,-1.744893197,0.8259200574
13.77873349,-1.34308617,1.506330883
13.78138972,-0.7351616156,1.973659244
13.78309793,0.0146709409,2.14890488
13.78275665,0.7660511502,1.97717668
13.78094337,1.377544322,1.511447153
13.77875295,1.783192935,0.8294374932
13.77767098,1.929582258,-1.254976984e-17
13.77875295,1.783192935,-0.8294374932
13.78094337,1.377544322,-1.511447153
13.78275665,0.7660511502,-1.97717668
14.45,-0.008029891304,-1.95
14.45,-0.6986631343,-1.796657948
14.45,-1.262898329,-1.378587862
14.45,-1.643449306,-0.7587238444
14.45,-1.783029891,-0.0
14.45,-1.643449306,0.7587238444
14.45,-1.262898329,1.378587862
14.45,-0.6986631343,1.796657948
14.45,-0.008029891304,1.95
14.45,0.6826033516,1.796657948
14.45,1.246838547,1.378587862
14.45,1.627389523,0.7587238444
14.45,1.766970109,-0.0
14.45,1.627389523,-0.7587238444
14.45,1.246838547,-1.378587862
14.45,0.6826033516,-1.796657948
15.08207223,-0.0190735394,-1.787149686
15.08277685,-0.6623005435,-1.650110253
15.08297436,-1.189219542,-1.268257916
15.08315006,-1.545438333,-0.6989420869
15.08325044,-1.676330222,-3.512815039e-17
15.08315006,-1.545438333,0.6989420869
15.08297436,-1.189219542,1.268257916
15.08277685,-0.6623005435,1.650110253
15.08207223,-0.0190735394,1.787149686
15.08052762,0.6205279534,1.64196505
15.07895857,1.139224896,1.256410348
15.07820539,1.486811744,0.6907968841
15.07805908,1.613668236,9.760932094e-18
15.07820539,1.486811744,-0.6907968841
15.07895857,1.139224896,-1.256410348
15.08052762,0.6205279534,-1.64196505
15.71475907,-0.04336956522,-1.626257307
15.71331745,-0.6500145074,-1.495387719
15.70950801,-1.141693153,-1.140098978
15.70661998,-1.463828679,-0.6247718829
15.70558207,-1.57866339,-3.469446952e-18
15.70661998,-1.463828679,0.6247718829
15.70950801,-1.141693153,1.140098978
15.71331745,-0.6500145074,1.495387719
15.71475907,-0.04336956522,1.626257307
15.71131813,0.5600527002,1.488147538
15.70593841,1.044422852,1.129567807
15.70222472,1.35888554,0.6175317027
15.70096752,1.470133231,2.602915225e-17
15.70222472,1.35888554,-0.6175317027
15.70593841,1.044422852,-1.129567807
15.71131813,0.5600527002,-1.488147538
16.34332724,-0.06766559103,-1.452236274
16.34046019,-0.6341815051,-1.330061765
16.33454852,-1.089691783,-1.007465058
16.33004078,-1.381857819,-0.5494870583
16.32838352,-1.483804191,2.992397996e-17
16.33004078,-1.381857819,0.5494870583
16.33454852,-1.089691783,1.007465058
16.34046019,-0.6341815051,1.330061765
16.34332724,-0.06766559103,1.452236274
16.33971045,0.4976418192,1.327346697
16.33320992,0.9504114116,1.003515869
16.32839256,1.239700133,0.5467719907
16.32665307,1.340301374,2.928279628e-17
16.32839256,1.239700133,-0.5467719907
16.33320992,0.9504114116,-1.003515869
16.33971045,0.4976418192,-1.327346697
16.96304348,-0.07870923913,-1.25
16.96304348,-0.587178016,-1.151703813
16.96304348,-1.002588051,-0.8837101677
16.96304348,-1.282763225,-0.4863614387
16.96304348,-1.385527421,-0.0
16.96304348,-1.282763225,0.4863614387
16.96304348,-1.002588051,0.8837101677
16.96304348,-0.587178016,1.151703813
16.96304348,-0.07870923913,1.25
16.96304348,0.4297595377,1.151703813
16.96304348,0.8451695726,0.8837101677
16.96304348,1.125344747,0.4863614387
16.96304348,1.228108943,8.217301096e-33
16.96304348,1.125344747,-0.4863614387
16.96304348,0.8451695726,-0.8837101677
16.96304348,0.4297595377,-1.151703813
17.62121482,-0.08544733696,-1.076351225
17.62444809,-0.5322346576,-1.001405636
17.63069855,-0.9056961092,-0.7829778212
17.63551114,-1.173734457,-0.4364150542
17.63730653,-1.277613112,-3.907985047e-17
17.63551114,-1.173734457,0.4364150542
17.63069855,-0.9056961092,0.7829778212
17.62444809,-0.5322346576,1.001405636
17.62121482,-0.08544733696,1.076351225
17.62444809,0.3613399837,1.001405636
17.63069855,0.7348014353,0.7829778212
17.63551114,1.002839783,0.4364150542
17.63730653,1.106718438,-1.761058072e-17
17.63551114,1.002839783,-0.4364150542
17.63069855,0.7348014353,-0.7829778212
17.62444809,0.3613399837,-1.001405636
18.50767127,-0.1015151087,-0.9135715236
18.51141538,-0.4823563526,-0.8532672568
18.51868996,-0.8038636749,-0.6719874983
18.52436042,-1.039732061,-0.3761443412
18.52650041,-1.132777824,-3.730349363e-17
18.52436042,-1.039732061,0.3761443412
18.51868996,-0.8038636749,0.6719874983
18.51141538,-0.4823563526,0.8532672568
18.50767127,-0.1015151087,0.9135715236
18.51141538,0.2793261352,0.8532672568
18.51868996,0.6008334575,0.6719874983
18.52436042,0.8367018435,0.3761443412
18.52650041,0.9297476065,-2.855769847e-18
18.52436042,0.8367018435,-0.3761443412
18.51868996,0.6008334575,-0.6719874983
18.51141538,0.2793261352,-0.8532672568
19.46323652,-0.1206927717,-0.7676162092
19.46587485,-0.437658981,-0.7157825519
19.4710483,-0.704682139,-0.5618755793
19.47517034,-0.8985963773,-0.3136105798
19.47675724,-0.9744375144,-1.598721155e-17
19.47517034,-0.8985963773,0.3136105798
19.4710483,-0.704682139,0.5618755793
19.46587485,-0.437658981,0.7157825519
19.46323652,-0.1206927717,0.7676162092
19.46587485,0.1962734375,0.7157825519
19.4710483,0.4632965955,0.5618755793
19.47517034,0.6572108338,0.3136105798
19.47675724,0.733051971,2.070433139e-17
19.47517034,0.6572108338,-0.3136105798
19.4710483,0.4632965955,-0.5618755793
19.46587485,0.1962734375,-0.7157825519
20.32873427,-0.1367605435,-0.6444405966
20.32975595,-0.398258423,-0.5974453996
20.33180418,-0.6157428926,-0.4637784444
20.33351992,-0.7681677464,-0.2568750503
20.33420912,-0.8260081424,3.552713679e-18
20.33351992,-0.7681677464,0.2568750503
20.33180418,-0.6157428926,0.4637784444
20.32975595,-0.398258423,0.5974453996
20.32873427,-0.1367605435,0.6444405966
20.32975595,0.124737336,0.5974453996
20.33180418,0.3422218057,0.4637784444
20.33351992,0.4946466595,0.2568750503
20.33420912,0.5524870554,2.950962175e-17
20.33351992,0.4946466595,-0.2568750503
20.33180418,0.3422218057,-0.4637784444
20.32975595,0.124737336,-0.5974453996
20.94498819,-0.1434986413,-0.55
20.94498819,-0.3642705588,-0.5067496777
20.94498819,-0.5446373269,-0.3888324738
20.94498819,-0.6662865084,-0.213999033
20.94498819,-0.7109056661,-0.0
20.94498819,-0.6662865084,0.213999033
20.94498819,-0.5446373269,0.3888324738
20.94498819,-0.3642705588,0.5067496777
20.94498819,-0.1434986413,0.55
20.94498819,0.07727327622,0.5067496777
20.94498819,0.2576400443,0.3888324738
20.94498819,0.3792892258,0.213999033
20.94498819,0.4239083835,-0.0
20.94498819,0.3792892258,-0.213999033
20.94498819,0.2576400443,-0.3888324738
20.94498819,0.07727327622,-0.5067496777
21.40030026,-0.1502740347,-0.4886580253
21.40001397,-0.337023541,-0.4486900597
21.3993697,-0.4877083336,-0.342124836
21.39870135,-0.5871278769,-0.187816032
21.39839099,-0.6228708419,-1.065814104e-17
21.39870135,-0.5871278769,0.187816032
21.3993697,-0.4877083336,0.342124836
21.40001397,-0.337023541,0.4486900597
21.40030026,-0.1502740347,0.4886580253
21.40001397,0.03647547158,0.4486900597
21.3993697,0.1871602643,0.342124836
21.39870135,0.2865798075,0.187816032
21.39839099,0.3223227725,-3.522116145e-17
21.39870135,0.2865798075,-0.187816032
21.3993697,0.1871602643,-0.342124836
21.40001397,0.03647547158,-0.4486900597
21.87163699,-0.166430742,-0.4499029283
21.87120487,-0.3152250361,-0.4124153647
21.87024326,-0.4345971352,-0.3133876391
21.86926341,-0.5118818487,-0.1715570126
21.86881305,-0.5391440109,-5.329070518e-18
21.86926341,-0.5118818487,0.1715570126
21.87024326,-0.4345971352,0.3133876391
21.87120487,-0.3152250361,0.4124153647
21.87163699,-0.166430742,0.4499029283
21.87120487,-0.01763644798,0.4124153647
21.87024326,0.1017356512,0.3133876391
21.86926341,0.1790203647,0.1715570126
21.86881305,0.2062825268,-3.783895047e-17
21.86926341,0.1790203647,-0.1715570126
21.87024326,0.1017356512,-0.3133876391
21.87120487,-0.01763644798,-0.4124153647
22.33281887,-0.185714554,-0.4173769987
22.33238406,-0.2950601955,-0.3826506889
22.33142725,-0.3828426191,-0.2907246733
22.33047007,-0.4389109389,-0.1588794466
22.33003489,-0.4583905091,5.329070518e-18
22.33047007,-0.4389109389,0.1588794466
22.33142725,-0.3828426191,0.2907246733
22.33238406,-0.2950601955,0.3826506889
22.33281887,-0.185714554,0.4173769987
22.33238406,-0.07636891248,0.3826506889
22.33142725,0.01141351117,0.2907246733
22.33047007,0.06748183099,0.1588794466
22.33003489,0.08696140111,-2.284615878e-17
22.33047007,0.06748183099,-0.1588794466
22.33142725,0.01141351117,-0.2907246733
22.33238406,-0.07636891248,-0.3826506889
22.75766638,-0.2018712613,-0.3747225259
22.75737471,-0.2727141707,-0.3441211282
22.75674004,-0.3299836727,-0.2622397284
22.75611703,-0.3665776626,-0.1434408061
22.75583703,-0.3792756723,1.065814104e-17
22.75611703,-0.3665776626,0.1434408061
22.75674004,-0.3299836727,0.2622397284
22.75737471,-0.2727141707,0.3441211282
22.75766638,-0.2018712613,0.3747225259
22.75737471,-0.1310283519,0.3441211282
22.75674004,-0.07375884989,0.2622397284
22.75611703,-0.03716486,0.1434408061
22.75583703,-0.02446685028,-5.235578053e-18
22.75611703,-0.03716486,-0.1434408061
22.75674004,-0.07375884989,-0.2622397284
22.75737471,-0.1310283519,-0.3441211282
23.12,-0.2086466547,-0.3055817994
23.12,-0.2443721131,-0.2815517788
23.12,-0.2735591834,-0.2160365946
23.12,-0.2932445348,-0.1188985629
23.12,-0.3004648365,-0.0
23.12,-0.2932445348,0.1188985629
23.12,-0.2735591834,0.2160365946
23.12,-0.2443721131,0.2815517788
23.12,-0.2086466547,0.3055817994
23.12,-0.1729211963,0.2815517788
23.12,-0.143734126,0.2160365946
23.12,-0.1240487746,0.1188985629
23.12,-0.1168284729,-0.0
23.12,-0.1240487746,-0.1188985629
23.12,-0.143734126,-0.2160365946
23.12,-0.1729211963,-0.2815517788
23.13723819,-0.2265093839,-0.2775411647
23.15142685,-0.241102919,-0.2103023871
23.16098868,-0.2509455947,-0.1151588117
23.16460376,-0.2545557456,-1.934318673e-18
23.16098868,-0.2509455947,0.1151588117
23.15142685,-0.241102919,0.2103023871
23.13723819,-0.2265093839,0.2775411647
23.13723819,-0.1907839255,0.2775411647
23.15142685,-0.1761903904,0.2103023871
23.16098868,-0.1663477147,0.1151588117
23.16460376,-0.1627375638,-1.934318673e-18
23.16098868,-0.1663477147,-0.1151588117
23.15142685,-0.1761903904,-0.2103023871
23.13723819,-0.1907839255,-0.2775411647
23.15447638,-0.2086466547,-0.2735305506
23.1828537,-0.2086466547,-0.2045681796
23.20197736,-0.2086466547,-0.1114190606
23.20920752,-0.2086466547,-3.868637347e-18
23.20197736,-0.2086466547,0.1114190606
23.1828537,-0.2086466547,0.2045681796
23.15447638,-0.2086466547,0.2735305506
22.89870823,-0.2545661123,-0.2173913043
22.76481543,-0.2328130403,-0.2173913043
22.76342878,-0.2436319631,-0.2173913043
22.52683348,-0.2240275448,-0.2173913043
22.53046953,-0.1951730437,-0.2173913043
22.14261455,-0.1910086399,-0.2173913043
22.14945878,-0.135143422,-0.2173913043
21.58802825,-0.1407279646,-0.2173913043
21.59856444,-0.05089081797,-0.2173913043
20.91002241,-0.0733394297,-0.2173913043
20.92339446,0.04824021748,-0.2173913043
20.2453575,0.1430499032,-0.2173913043
20.23167802,0.00632011414,-0.2173913043
19.68901471,0.214166534,-0.2173913043
19.67802231,0.0872694144,-0.2173913043
19.30644683,0.2506327528,-0.2173913043
19.29931968,0.1540909497,-0.2173913043
19.08408222,0.2665906064,-0.2173913043
19.08067582,0.2131798105,-0.2173913043
19.00745084,0.2707823217,-0.2173913043
19.08748863,0.3200014023,-0.2173913043
19.31357397,0.3471745558,-0.2173913043
19.70000712,0.3410636536,-0.2173913043
20.25903697,0.2797796923,-0.2173913043
20.93676652,0.1698198647,-0.2173913043
21.60910063,0.03894632862,-0.2173913043
22.15630301,-0.07927820413,-0.2173913043
22.53410558,-0.1663185426,-0.2173913043
22.76620207,-0.2219941175,-0.2173913043
22.76204214,-0.2544508859,-0.2173913043
22.52319744,-0.2528820459,-0.2173913043
22.13577032,-0.2468738577,-0.2173913043
21.57749206,-0.2305651111,-0.2173913043
20.89665035,-0.1949190769,-0.2173913043
20.21799854,-0.130409675,-0.2173913043
19.6670299,-0.03962770519,-0.2173913043
19.29219254,0.05754914668,-0.2173913043
19.07726941,0.1597690146,-0.2173913043
19.09089503,0.3734121982,-0.2173913043
19.32070111,0.4437163589,-0.2173913043
19.71099952,0.4679607732,-0.2173913043
20.27271645,0.4165094814,-0.2173913043
20.95013858,0.2913995118,-0.2173913043
21.61963682,0.1287834752,-0.2173913043
22.16314725,-0.02341298626,-0.2173913043
22.53774162,-0.1374640415,-0.2173913043
22.76758872,-0.2111751947,-0.2173913043
22.33214285,0.3251191511,-1.002370119
22.46377063,0.3265767172,-1.002370119
22.10209167,0.3238618531,-1.002370119
21.72889824,0.3250872205,-1.002370119
21.19106096,0.3340641409,-1.002370119
20.53499277,0.3598704437,-1.002370119
19.88071347,0.4129442223,-1.002370119
19.34903595,0.4922606079,-1.002370119
18.98676071,0.5794426373,-1.002370119
18.77804559,0.6732006345,-1.002370119
18.70824235,0.777837019,-1.002370119
18.78845604,0.8768225234,-1.002370119
19.00942099,0.9461752402,-1.002370119
19.38504542,0.9737922561,-1.002370119
19.92648968,0.9316230024,-1.002370119
20.58027927,0.8210564688,-1.002370119
21.22700689,0.6748591965,-1.002370119
21.75235824,0.5370247018,-1.002370119
22.1145912,0.4333337812,-1.002370119
22.3369178,0.3661670167,-1.002370119
21.90224356,0.9046891881,-1.787348933
22.02883303,0.9077195466,-1.787348933
21.68098589,0.9006057522,-1.787348933
21.32202617,0.8970482987,-1.787348933
20.80462985,0.8986933929,-1.787348933
20.17333519,0.9146599643,-1.787348933
19.5434284,0.9562981195,-1.787348933
19.031042,1.024148921,-1.787348933
18.68132887,1.101336128,-1.787348933
18.47882176,1.186632254,-1.787348933
18.40903385,1.284891716,-1.787348933
18.48601704,1.380232849,-1.787348933
18.69814087,1.448634121,-1.787348933
19.05909131,1.479623739,-1.787348933
19.58026291,1.446736523,-1.787348933
20.21041996,1.350713426,-1.787348933
20.83437697,1.220934918,-1.787348933
21.34156923,1.09746239,-1.787348933
21.69144077,1.004131604,-1.787348933
21.90624689,0.9435092281,-1.787348933
21.47234427,1.484259225,-2.572327748
21.59389543,1.488862376,-2.572327748
21.25988012,1.477349651,-2.572327748
20.91515409,1.469009377,-2.572327748
20.41819875,1.463322645,-2.572327748
19.81167761,1.469449485,-2.572327748
19.20614333,1.499652017,-2.572327748
18.71304805,1.556037234,-2.572327748
18.37589703,1.623229619,-2.572327748
18.17959794,1.700063874,-2.572327748
18.10982536,1.791946414,-2.572327748
18.18357805,1.883643174,-2.572327748
18.38686074,1.951093003,-2.572327748
18.73313721,1.985455222,-2.572327748
19.23403614,1.961850044,-2.572327748
19.84056065,1.880370383,-2.572327748
20.44174704,1.767010639,-2.572327748
20.93078022,1.657900078,-2.572327748
21.26829034,1.574929427,-2.572327748
21.47557597,1.520851439,-2.572327748
21.04244498,2.063829262,-3.357306562
21.15895783,2.070005206,-3.357306562
20.83877435,2.05409355,-3.357306562
20.50828202,2.040970455,-3.357306562
20.03176765,2.027951897,-3.357306562
19.45002003,2.024239005,-3.357306562
18.86885826,2.043005914,-3.357306562
18.3950541,2.087925547,-3.357306562
18.0704652,2.145123109,-3.357306562
17.88037411,2.213495494,-3.357306562
17.81061687,2.299001111,-3.357306562
17.88113906,2.387053499,-3.357306562
18.07558062,2.453551884,-3.357306562
18.40718311,2.491286705,-3.357306562
18.88780936,2.476963565,-3.357306562
19.47070134,2.41002734,-3.357306562
20.04911711,2.31308636,-3.357306562
20.51999121,2.218337766,-3.357306562
20.84513992,2.145727249,-3.357306562
21.04490505,2.098193651,-3.357306562
20.61254569,2.643399299,-4.142285377
20.72402023,2.651148035,-4.142285377
20.41766858,2.630837449,-4.142285377
20.10140994,2.612931533,-4.142285377
19.64533655,2.592581149,-4.142285377
19.08836245,2.579028526,-4.142285377
18.53157319,2.586359811,-4.142285377
18.07706014,2.61981386,-4.142285377
17.76503336,2.6670166,-4.142285377
17.58115029,2.726927114,-4.142285377
17.51140837,2.806055808,-4.142285377
17.57870006,2.890463824,-4.142285377
17.7643005,2.956010765,-4.142285377
18.081229,2.997118188,-4.142285377
18.54158259,2.992077086,-4.142285377
19.10084203,2.939684297,-4.142285377
19.65648718,2.859162082,-4.142285377
20.1092022,2.778775454,-4.142285377
20.42198949,2.716525072,-4.142285377
20.61423414,2.675535862,-4.142285377
20.18264641,3.222969336,-4.927264191
20.28908263,3.232290865,-4.927264191
19.99656281,3.207581348,-4.927264191
19.69453787,3.184892612,-4.927264191
19.25890545,3.157210401,-4.927264191
18.72670487,3.133818047,-4.927264191
18.19428812,3.129713709,-4.927264191
17.75906619,3.151702173,-4.927264191
17.45960153,3.18891009,-4.927264191
17.28192646,3.240358734,-4.927264191
17.21219988,3.313110506,-4.927264191
17.27626107,3.393874149,-4.927264191
17.45302037,3.458469647,-4.927264191
17.7552749,3.502949671,-4.927264191
18.19535582,3.507190607,-4.927264191
18.73098272,3.469341254,-4.927264191
19.26385725,3.405237803,-4.927264191
19.69841319,3.339213142,-4.927264191
19.99883907,3.287322895,-4.927264191
20.18356322,3.252878074,-4.927264191
19.75274712,3.802539373,-5.712243006
19.85414503,3.813433694,-5.712243006
19.57545704,3.784325247,-5.712243006
19.28766579,3.75685369,-5.712243006
18.87247435,3.721839653,-5.712243006
18.36504729,3.688607567,-5.712243006
17.85700305,3.673067606,-5.712243006
17.44107224,3.683590486,-5.712243006
17.15416969,3.710803581,-5.712243006
16.98270264,3.753790354,-5.712243006
16.91299139,3.820165203,-5.712243006
16.97382208,3.897284475,-5.712243006
17.14174025,3.960928528,-5.712243006
17.42932079,4.008781154,-5.712243006
17.84912905,4.022304128,-5.712243006
18.36112341,3.998998211,-5.712243006
18.87122732,3.951313524,-5.712243006
19.28762418,3.89965083,-5.712243006
19.57568864,3.858120717,-5.712243006
19.75289231,3.830220285,-5.712243006
19.32284783,4.38210941,-6.49722182
19.41920743,4.394576524,-6.49722182
19.15435127,4.361069146,-6.49722182
18.88079372,4.328814768,-6.49722182
18.48604325,4.286468905,-6.49722182
18.00338971,4.243397088,-6.49722182
17.51971798,4.216421503,-6.49722182
17.12307829,4.215478799,-6.49722182
16.84873786,4.232697072,-6.49722182
16.68347881,4.267221974,-6.49722182
16.61378289,4.3272199,-6.49722182
16.67138308,4.4006948,-6.49722182
16.83046012,4.463387409,-6.49722182
17.10336669,4.514612637,-6.49722182
17.50290228,4.537417649,-6.49722182
17.9912641,4.528655168,-6.49722182
18.47859739,4.497389246,-6.49722182
18.87683517,4.460088518,-6.49722182
19.15253821,4.42891854,-6.49722182
19.32222139,4.407562496,-6.49722182
18.89294854,4.961679447,-7.282200635
18.98426983,4.975719353,-7.282200635
18.7332455,4.937813045,-7.282200635
18.47392164,4.900775846,-7.282200635
18.09961214,4.851098157,-7.282200635
17.64173213,4.798186608,-7.282200635
17.18243291,4.7597754,-7.282200635
16.80508434,4.747367113,-7.282200635
16.54330602,4.754590562,-7.282200635
16.38425499,4.780653594,-7.282200635
16.3145744,4.834274598,-7.282200635
16.36894409,4.904105125,-7.282200635
16.51918,4.96584629,-7.282200635
16.77741258,5.020444119,-7.282200635
17.1566755,5.05253117,-7.282200635
17.62140479,5.058312125,-7.282200635
18.08596747,5.043464967,-7.282200635
18.46604616,5.020526206,-7.282200635
18.72938779,4.999716363,-7.282200635
18.89155047,4.984904708,-7.282200635
18.88943541,4.969543911,-7.288255695
18.72398563,4.958746377,-7.298396952
18.45636773,4.941173785,-7.313731177
18.07228793,4.915754253,-7.333349573
17.60620545,4.885214414,-7.352247012
17.14395155,4.857260924,-7.362168524
16.77008463,4.837975884,-7.357859051
16.51654313,4.824549339,-7.341456477
16.36862526,4.821496405,-7.317171333
16.3577519,4.908590414,-7.317215273
16.49932997,4.973301882,-7.341602125
16.75024109,5.030002729,-7.358105366
17.12540028,5.063043615,-7.362444411
17.59155434,5.06818652,-7.35245652
18.06248411,5.051248872,-7.333459816
18.45073801,5.025640746,-7.31377247
18.72124108,5.00245724,-7.298408091
18.88844403,4.985954348,-7.288257593
18.88756833,4.979595886,-7.29076592
18.71900869,4.985504411,-7.305112894
18.44675222,4.992825864,-7.32681057
