x,y,z
20.87745292,-1.278951268,-0.3546969144
20.87745292,-1.388107834,-0.0
20.87745292,-1.278951268,0.3546969144
20.87745292,-0.9813480056,0.6444780462
20.87745292,-0.5400976987,0.8399222395
20.87745292,0.0,0.9116083385
20.87745292,0.5400976987,0.8399222395
20.87745292,0.9813480056,0.6444780462
20.87745292,1.278951268,0.3546969144
20.87745292,1.388107834,-0.0
20.87745292,1.278951268,-0.3546969144
20.87745292,0.9813480056,-0.6444780462
20.87745292,0.5400976987,-0.8399222395
21.86041576,-2.427601366e-19,-0.8877459739
21.86041576,-0.5308579997,-0.8179474396
21.86041576,-0.964655772,-0.6276091745
21.86041576,-1.257206674,-0.3453600004
21.86041576,-1.364495323,-2.427601366e-18
21.86041576,-1.257206674,0.3453600004
21.86041576,-0.964655772,0.6276091745
21.86041576,-0.5308579997,0.8179474396
21.86041576,-1.81260902e-18,0.8877459739
21.86041576,0.5308579997,0.8179474396
21.86041576,0.964655772,0.6276091745
21.86041576,1.257206674,0.3453600004
21.86041576,1.364495323,1.561098677e-18
21.86041576,1.257206674,-0.3453600004
21.86041576,0.964655772,-0.6276091745
21.86041576,0.5308579997,-0.8179474396
22.99079494,-8.092004553e-19,-0.8243289826
22.99079494,-0.5063117531,-0.7595432697
22.99079494,-0.9202799929,-0.582777855
22.99079494,-1.199396191,-0.3205630411
22.99079494,-1.301722689,-8.092004553e-18
22.99079494,-1.199396191,0.3205630411
22.99079494,-0.9202799929,0.582777855
22.99079494,-0.5063117531,0.7595432697
22.99079494,-6.042030066e-18,0.8243289826
22.99079494,0.5063117531,0.7595432697
22.99079494,0.9202799929,0.582777855
22.99079494,1.199396191,0.3205630411
22.99079494,1.301722689,5.203662258e-18
22.99079494,1.199396191,-0.3205630411
22.99079494,0.9202799929,-0.582777855
22.99079494,0.5063117531,-0.7595432697
24.1632399,-1.456560819e-18,-0.733612518
24.1632399,-0.4712182338,-0.6759900744
24.1632399,-0.8567720508,-0.5186470311
24.1632399,-1.116654773,-0.2851267107
24.1632399,-1.211887285,-1.456560819e-17
24.1632399,-1.116654773,0.2851267107
24.1632399,-0.8567720508,0.5186470311
24.1632399,-0.4712182338,0.6759900744
24.1632399,-1.087565412e-17,0.733612518
24.1632399,0.4712182338,0.6759900744
24.1632399,0.8567720508,0.5186470311
24.1632399,1.116654773,0.2851267107
24.1632399,1.211887285,9.366592064e-18
24.1632399,1.116654773,-0.2851267107
24.1632399,0.8567720508,-0.5186470311
24.1632399,0.4712182338,-0.6759900744
25.27240006,-1.942081093e-18,-0.6278517339
25.27240006,-0.430336717,-0.578568198
25.27240006,-0.7826833281,-0.4438796462
25.27240006,-1.020117369,-0.2438716833
25.27240006,-1.107086463,-1.942081093e-17
25.27240006,-1.020117369,0.2438716833
25.27240006,-0.7826833281,0.4438796462
25.27240006,-0.430336717,0.578568198
25.27240006,-1.450087216e-17,0.6278517339
25.27240006,0.430336717,0.578568198
25.27240006,0.7826833281,0.4438796462
25.27240006,1.020117369,0.2438716833
25.27240006,1.107086463,1.248878942e-17
25.27240006,1.020117369,-0.2438716833
25.27240006,0.7826833281,-0.4438796462
25.27240006,0.430336717,-0.578568198
26.21292484,-2.023001138e-18,-0.5193017838
26.21292484,-0.3884264779,-0.4785579853
26.21292484,-0.7065652074,-0.3671386437
26.21292484,-0.9209189333,-0.2016186331
26.21292484,-0.999417573,-2.023001138e-17
26.21292484,-0.9209189333,0.2016186331
26.21292484,-0.7065652074,0.3671386437
26.21292484,-0.3884264779,0.4785579853
26.21292484,-1.510507516e-17,0.5193017838
26.21292484,0.3884264779,0.4785579853
26.21292484,0.7065652074,0.3671386437
26.21292484,0.9209189333,0.2016186331
26.21292484,0.999417573,1.300915564e-17
26.21292484,0.9209189333,-0.2016186331
26.21292484,0.7065652074,-0.3671386437
26.21292484,0.3884264779,-0.4785579853
26.87946368,-1.456560819e-18,-0.4202178213
26.87946368,-0.3502467917,-0.3872397806
26.87946368,-0.6369690712,-0.2970869671
26.87946368,-0.8301944161,-0.1631882343
26.87946368,-0.9009779683,-1.456560819e-17
26.87946368,-0.8301944161,0.1631882343
26.87946368,-0.6369690712,0.2970869671
26.87946368,-0.3502467917,0.3872397806
26.87946368,-1.087565412e-17,0.4202178213
26.87946368,0.3502467917,0.3872397806
26.87946368,0.6369690712,0.2970869671
26.87946368,0.8301944161,0.1631882343
26.87946368,0.9009779683,9.366592064e-18
26.87946368,0.8301944161,-0.1631882343
26.87946368,0.6369690712,-0.2970869671
26.87946368,0.3502467917,-0.3872397806
27.166666,0.0,-0.342855
27.166666,-0.3205569334,-0.3158939286
27.166666,-0.5824463019,-0.2423875596
27.166666,-0.7590787695,-0.1334011609
27.166666,-0.823865,-0.0
27.166666,-0.7590787695,0.1334011609
27.166666,-0.5824463019,0.2423875596
27.166666,-0.3205569334,0.3158939286
27.166666,-4.108650548e-33,0.342855
27.166666,0.3205569334,0.3158939286
27.166666,0.5824463019,0.2423875596
27.166666,0.7590787695,0.1334011609
27.166666,0.823865,-0.0
27.166666,0.7590787695,-0.1334011609
27.166666,0.5824463019,-0.2423875596
27.166666,0.3205569334,-0.3158939286
27.22016646,2.913121639e-18,-0.2703625754
27.22016646,-0.2822349101,-0.2489574803
27.22016646,-0.5122021237,-0.1909804547
27.22016646,-0.6675927235,-0.105446367
27.22016646,-0.7247277066,4.126922322e-18
27.22016646,-0.6675927235,0.105446367
27.22016646,-0.5122021237,0.1909804547
27.22016646,-0.2822349101,0.2489574803
27.22016646,9.321989245e-18,0.2703625754
27.22016646,0.2822349101,0.2489574803
27.22016646,0.5122021237,0.1909804547
27.22016646,0.6675927235,0.105446367
27.22016646,0.7247277066,-3.313037022e-17
27.22016646,0.6675927235,-0.105446367
27.22016646,0.5122021237,-0.1909804547
27.22016646,0.2822349101,-0.2489574803
27.22611095,4.046002276e-18,-0.2154387945
27.22611095,-0.2339003358,-0.1981880067
27.22611095,-0.4244424591,-0.1518006104
27.22611095,-0.5535111298,-0.08384833157
27.22611095,-0.6010882114,8.092004553e-18
27.22611095,-0.5535111298,0.08384833157
27.22611095,-0.4244424591,0.1518006104
27.22611095,-0.2339003358,0.1981880067
27.22611095,1.294720728e-17,0.2154387945
27.22611095,0.2339003358,0.1981880067
27.22611095,0.4244424591,0.1518006104
27.22611095,0.5535111298,0.08384833157
27.22611095,0.6010882114,-4.365423509e-17
27.22611095,0.5535111298,-0.08384833157
27.22611095,0.4244424591,-0.1518006104
27.22611095,0.2339003358,-0.1981880067
27.20233297,3.884162185e-18,-0.1722450989
27.20233297,-0.1800663761,-0.158247072
27.20233297,-0.3270841125,-0.1208677324
27.20233297,-0.4270005615,-0.06657249652
27.20233297,-0.4639362942,1.116696628e-17
27.20233297,-0.4270005615,0.06657249652
27.20233297,-0.3270841125,0.1208677324
27.20233297,-0.1800663761,0.158247072
27.20233297,1.242931899e-17,0.1722450989
27.20233297,0.1800663761,0.158247072
27.20233297,0.3270841125,0.1208677324
27.20233297,0.4270005615,0.06657249652
27.20233297,0.4639362942,-3.850942377e-17
27.20233297,0.4270005615,-0.06657249652
27.20233297,0.3270841125,-0.1208677324
27.20233297,0.1800663761,-0.158247072
27.166666,2.913121639e-18,-0.13494293
27.166666,-0.1252461968,-0.12379624
27.166666,-0.2280438887,-0.09420152661
27.166666,-0.2982275913,-0.05158430385
27.166666,-0.3242617347,1.26235271e-17
27.166666,-0.2982275913,0.05158430385
27.166666,-0.2280438887,0.09420152661
27.166666,-0.1252461968,0.12379624
27.166666,9.321989245e-18,0.13494293
27.166666,0.1252461968,0.12379624
27.166666,0.2280438887,0.09420152661
27.166666,0.2982275913,0.05158430385
27.166666,0.3242617347,-2.463376544e-17
27.166666,0.2982275913,-0.05158430385
27.166666,0.2280438887,-0.09420152661
27.166666,0.1252461968,-0.12379624
27.13694352,1.618400911e-18,-0.09769372958
27.13694352,-0.07395296385,-0.08949707466
27.13694352,-0.1352385923,-0.06782169876
27.13694352,-0.1773587924,-0.03684919554
27.13694352,-0.1930543127,1.17334066e-17
27.13694352,-0.1773587924,0.03684919554
27.13694352,-0.1352385923,0.06782169876
27.13694352,-0.07395296385,0.08949707466
27.13694352,5.178882914e-18,0.09769372958
27.13694352,0.07395296385,0.08949707466
27.13694352,0.1352385923,0.06782169876
27.13694352,0.1773587924,0.03684919554
27.13694352,0.1930543127,-8.965089254e-18
27.13694352,0.1773587924,-0.03684919554
27.13694352,0.1352385923,-0.06782169876
27.13694352,0.07395296385,-0.08949707466
27.13099903,4.855202732e-19,-0.05465893905
27.13099903,-0.03069984298,-0.05001114001
27.13099903,-0.05658502782,-0.03774795463
27.13099903,-0.07456073761,-0.0203326136
27.13099903,-0.08130380785,7.768324371e-18
27.13099903,-0.07456073761,0.0203326136
27.13099903,-0.05658502782,0.03774795463
27.13099903,-0.03069984298,0.05001114001
27.13099903,1.553664874e-18,0.05465893905
27.13099903,0.03069984298,0.05001114001
27.13099903,0.05658502782,0.03774795463
27.13099903,0.07456073761,0.0203326136
27.13099903,0.08130380785,1.558775614e-18
27.13099903,0.07456073761,-0.0203326136
27.13099903,0.05658502782,-0.03774795463
27.13099903,0.03069984298,-0.05001114001
27.166666,0.0,-0.0
11.30392569,3.5,-0.0
11.14018043,3.508059172,1.0
11.30505897,3.5,1.0
11.13920229,3.50668126,-8.182183652e-19
10.85203517,3.522701185,1.0
10.85135153,3.519180761,-2.348965728e-18
10.38464788,3.548246701,1.0
10.38450173,3.54197627,-5.140610474e-18
9.711094322,3.588806829,1.0
9.7118459,3.580140562,-9.814388234e-18
8.888927698,3.639824457,1.0
8.890945101,3.630554786,-1.598835012e-17
8.06965485,3.674108084,-2.132209083e-17
8.066261116,3.68156233,1.0
7.396433639,3.699343331,-2.441251717e-17
7.391947031,3.70229527,1.0
6.929663733,3.681225386,-2.219370888e-17
6.924679283,3.680658162,1.0
6.650546003,3.614538525,-1.402692384e-17
6.645142501,3.61346241,1.0
6.540540541,3.5,-0.0
6.534110043,3.5,1.0
6.603564637,3.353957281,1.0
6.603770905,3.348808627,1.851560312e-17
6.857782642,3.204697964,1.0
6.854405011,3.189800256,3.798851238e-17
7.319876145,3.070387167,1.0
7.315353892,3.044924411,5.573068638e-17
8.010792511,2.994990391,1.0
8.00725267,2.962013726,6.58843168e-17
8.859420278,3.025900273,1.0
8.857749254,2.993385534,6.204237837e-17
9.701415108,3.108432403,4.795320046e-17
9.701822507,3.13436914,1.0
10.3848001,3.248573604,3.079085308e-17
10.38491309,3.265575409,1.0
10.85391048,3.367696819,1.620246667e-17
10.85430979,3.376745553,1.0
11.1407204,3.44990906,6.134370946e-18
11.14152987,3.453354445,1.0
11.14115858,3.509437085,2.0
11.30619225,3.5,2.0
10.85271881,3.52622161,2.0
10.38479403,3.554517132,2.0
9.710342744,3.597473096,2.0
8.886910294,3.649094128,2.0
8.062867382,3.689016575,2.0
7.387460422,3.705247209,2.0
6.919694833,3.680090938,2.0
6.639739,3.612386294,2.0
6.527679544,3.5,2.0
6.603358368,3.359105935,2.0
6.861160272,3.219595672,2.0
7.324398397,3.095849923,2.0
8.014332353,3.027967056,2.0
8.861091302,3.058415011,2.0
9.702229906,3.160305876,2.0
10.38502609,3.282577214,2.0
10.8547091,3.385794286,2.0
11.14233934,3.456799831,2.0
11.14213673,3.510814997,3.0
11.30732553,3.5,3.0
10.85340244,3.529742034,3.0
10.38494018,3.560787564,3.0
9.709591166,3.606139363,3.0
8.88489289,3.658363798,3.0
8.059473648,3.69647082,3.0
7.382973814,3.708199148,3.0
6.914710383,3.679523714,3.0
6.634335498,3.611310179,3.0
6.521249046,3.5,3.0
6.6031521,3.364254589,3.0
6.864537902,3.23449338,3.0
7.328920649,3.121312679,3.0
8.017872194,3.060943721,3.0
8.862762325,3.090929749,3.0
9.702637305,3.186242613,3.0
10.38513909,3.299579019,3.0
10.85510841,3.394843019,3.0
11.14314881,3.460245216,3.0
11.14311487,3.51219291,4.0
11.30845881,3.5,4.0
10.85408608,3.533262459,4.0
10.38508633,3.567057995,4.0
9.708839588,3.614805631,4.0
8.882875486,3.667633469,4.0
8.056079913,3.703925065,4.0
7.378487205,3.711151088,4.0
6.909725933,3.67895649,4.0
6.628931997,3.610234063,4.0
6.514818548,3.5,4.0
6.602945831,3.369403244,4.0
6.867915532,3.249391088,4.0
7.333442902,3.146775435,4.0
8.021412035,3.093920385,4.0
8.864433349,3.123444487,4.0
9.703044704,3.21217935,4.0
10.38525209,3.316580824,4.0
10.85550772,3.403891752,4.0
11.14395827,3.463690602,4.0
11.14409302,3.513570822,5.0
11.3095921,3.5,5.0
10.85476972,3.536782883,5.0
10.38523248,3.573328426,5.0
9.70808801,3.623471898,5.0
8.880858083,3.676903139,5.0
8.052686179,3.71137931,5.0
7.374000597,3.714103027,5.0
6.904741483,3.678389266,5.0
6.623528495,3.609157948,5.0
6.50838805,3.5,5.0
6.602739563,3.374551898,5.0
6.871293163,3.264288796,5.0
7.337965154,3.172238191,5.0
8.024951877,3.12689705,5.0
8.866104373,3.155959225,5.0
9.703452103,3.238116086,5.0
10.38536509,3.333582629,5.0
10.85590703,3.412940486,5.0
11.14476774,3.467135987,5.0
11.14507117,3.514948734,6.0
11.31072538,3.5,6.0
10.85545336,3.540303308,6.0
10.38537864,3.579598857,6.0
9.707336433,3.632138165,6.0
8.878840679,3.68617281,6.0
8.049292445,3.718833556,6.0
7.369513989,3.717054966,6.0
6.899757033,3.677822043,6.0
6.618124994,3.608081832,6.0
6.501957552,3.5,6.0
6.602533295,3.379700552,6.0
6.874670793,3.279186505,6.0
7.342487406,3.197700947,6.0
8.028491718,3.159873715,6.0
8.867775397,3.188473963,6.0
9.703859502,3.264052823,6.0
10.38547809,3.350584434,6.0
10.85630634,3.421989219,6.0
11.14557721,3.470581372,6.0
11.14604931,3.516326647,7.0
11.31185866,3.5,7.0
10.856137,3.543823732,7.0
10.38552479,3.585869288,7.0
9.706584855,3.640804432,7.0
8.876823275,3.695442481,7.0
8.045898711,3.726287801,7.0
7.36502738,3.720006906,7.0
6.894772583,3.677254819,7.0
6.612721492,3.607005717,7.0
6.495527054,3.5,7.0
6.602327026,3.384849206,7.0
6.878048423,3.294084213,7.0
7.347009659,3.223163703,7.0
8.03203156,3.192850379,7.0
8.86944642,3.220988702,7.0
9.704266901,3.28998956,7.0
10.38559109,3.367586239,7.0
10.85670565,3.431037952,7.0
11.14638667,3.474026758,7.0
11.14702746,3.517704559,8.0
11.31299194,3.5,8.0
10.85682063,3.547344157,8.0
10.38567094,3.59213972,8.0
9.705833277,3.6494707,8.0
8.874805872,3.704712151,8.0
8.042504977,3.733742046,8.0
7.360540772,3.722958845,8.0
6.889788133,3.676687595,8.0
6.607317991,3.605929601,8.0
6.489096556,3.5,8.0
6.602120758,3.38999786,8.0
6.881426053,3.308981921,8.0
7.351531911,3.24862646,8.0
8.035571401,3.225827044,8.0
8.871117444,3.25350344,8.0
9.7046743,3.315926297,8.0
10.38570409,3.384588044,8.0
10.85710496,3.440086685,8.0
11.14719614,3.477472143,8.0
11.14800561,3.519082471,9.0
11.31412522,3.5,9.0
10.85750427,3.550864582,9.0
10.38581709,3.598410151,9.0
9.705081699,3.658136967,9.0
8.872788468,3.713981822,9.0
8.039111242,3.741196291,9.0
7.356054163,3.725910784,9.0
6.884803683,3.676120371,9.0
6.601914489,3.604853485,9.0
6.482666058,3.5,9.0
6.601914489,3.395146515,9.0
6.884803683,3.323879629,9.0
7.356054163,3.274089216,9.0
8.039111242,3.258803709,9.0
8.872788468,3.286018178,9.0
9.705081699,3.341863033,9.0
10.38581709,3.401589849,9.0
10.85750427,3.449135418,9.0
11.14800561,3.480917529,9.0
11.06010598,3.51849273,9.9
11.22109169,3.5,9.9
10.77858256,3.549292616,9.9
10.32147283,3.595368794,9.9
9.6617755,3.653249759,9.9
8.855204212,3.707368734,9.9
8.047291701,3.733742143,9.9
7.385344436,3.718929033,9.9
6.928657908,3.670677388,9.9
6.654511377,3.601612999,9.9
6.538948308,3.5,9.9
6.654511377,3.398387001,9.9
6.928657908,3.329322612,9.9
7.385344436,3.281070967,9.9
8.047291701,3.266257857,9.9
8.855204212,3.292631266,9.9
9.6617755,3.346750241,9.9
10.32147283,3.404631206,9.9
10.77858256,3.450707384,9.9
11.06010598,3.48150727,9.9
10.97220636,3.517902988,10.8
11.12805815,3.5,10.8
10.69966085,3.547720651,10.8
10.25712856,3.592327438,10.8
9.6184693,3.648362551,10.8
8.837619955,3.700755646,10.8
8.05547216,3.726287994,10.8
7.414634709,3.711947282,10.8
6.972512132,3.665234404,10.8
6.707108265,3.598372512,10.8
6.595230557,3.5,10.8
6.707108265,3.401627488,10.8
6.972512132,3.334765596,10.8
7.414634709,3.288052718,10.8
8.05547216,3.273712006,10.8
8.837619955,3.299244354,10.8
9.6184693,3.351637449,10.8
10.25712856,3.407672562,10.8
10.69966085,3.452279349,10.8
10.97220636,3.482097012,10.8
10.88430673,3.517313246,11.7
11.03502461,3.5,11.7
10.62073914,3.546148686,11.7
10.1927843,3.589286082,11.7
9.575163101,3.643475343,11.7
8.820035699,3.694142558,11.7
8.063652619,3.718833846,11.7
7.443924982,3.70496553,11.7
7.016366356,3.659791421,11.7
6.759705153,3.595132025,11.7
6.651512806,3.5,11.7
6.759705153,3.404867975,11.7
7.016366356,3.340208579,11.7
7.443924982,3.29503447,11.7
8.063652619,3.281166154,11.7
8.820035699,3.305857442,11.7
9.575163101,3.356524657,11.7
10.1927843,3.410713918,11.7
10.62073914,3.453851314,11.7
10.88430673,3.482686754,11.7
10.79640711,3.516723504,12.6
10.94199108,3.5,12.6
10.54181743,3.544576721,12.6
10.12844004,3.586244725,12.6
9.531856901,3.638588135,12.6
8.802451443,3.687529471,12.6
8.071833078,3.711379697,12.6
7.473215255,3.697983779,12.6
7.06022058,3.654348438,12.6
6.812302041,3.591891538,12.6
6.707795055,3.5,12.6
6.812302041,3.408108462,12.6
7.06022058,3.345651562,12.6
7.473215255,3.302016221,12.6
8.071833078,3.288620303,12.6
8.802451443,3.312470529,12.6
9.531856901,3.361411865,12.6
10.12844004,3.413755275,12.6
10.54181743,3.455423279,12.6
10.79640711,3.483276496,12.6
10.70850748,3.516133762,13.5
10.84895754,3.5,13.5
10.46289573,3.543004756,13.5
10.06409578,3.583203369,13.5
9.488550702,3.633700927,13.5
8.784867186,3.680916383,13.5
8.080013537,3.703925549,13.5
7.502505528,3.691002028,13.5
7.104074805,3.648905454,13.5
6.864898929,3.588651051,13.5
6.764077305,3.5,13.5
6.864898929,3.411348949,13.5
7.104074805,3.351094546,13.5
7.502505528,3.308997972,13.5
8.080013537,3.296074451,13.5
8.784867186,3.319083617,13.5
9.488550702,3.366299073,13.5
10.06409578,3.416796631,13.5
10.46289573,3.456995244,13.5
10.70850748,3.483866238,13.5
10.62060786,3.51554402,14.4
10.755924,3.5,14.4
10.38397402,3.541432791,14.4
9.999751517,3.580162013,14.4
9.445244503,3.628813719,14.4
8.76728293,3.674303295,14.4
8.088193996,3.696471401,14.4
7.531795801,3.684020277,14.4
7.147929029,3.643462471,14.4
6.917495816,3.585410564,14.4
6.820359554,3.5,14.4
6.917495816,3.414589436,14.4
7.147929029,3.356537529,14.4
7.531795801,3.315979723,14.4
8.088193996,3.303528599,14.4
8.76728293,3.325696705,14.4
9.445244503,3.371186281,14.4
9.999751517,3.419837987,14.4
10.38397402,3.458567209,14.4
10.62060786,3.48445598,14.4
10.53270823,3.514954278,15.3
10.66289047,3.5,15.3
10.30505231,3.539860826,15.3
9.935407255,3.577120656,15.3
9.401938303,3.623926511,15.3
8.749698674,3.667690207,15.3
8.096374455,3.689017252,15.3
7.561086074,3.677038525,15.3
7.191783253,3.638019488,15.3
6.970092704,3.582170077,15.3
6.876641803,3.5,15.3
6.970092704,3.417829923,15.3
7.191783253,3.361980512,15.3
7.561086074,3.322961475,15.3
8.096374455,3.310982748,15.3
8.749698674,3.332309793,15.3
9.401938303,3.376073489,15.3
9.935407255,3.422879344,15.3
10.30505231,3.460139174,15.3
10.53270823,3.485045722,15.3
10.4448086,3.514364536,16.2
10.56985693,3.5,16.2
10.2261306,3.538288861,16.2
9.871062994,3.5740793,16.2
9.358632104,3.619039303,16.2
8.732114417,3.661077119,16.2
8.104554914,3.681563104,16.2
7.590376347,3.670056774,16.2
7.235637477,3.632576505,16.2
7.022689592,3.57892959,16.2
6.932924053,3.5,16.2
7.022689592,3.42107041,16.2
7.235637477,3.367423495,16.2
7.590376347,3.329943226,16.2
8.104554914,3.318436896,16.2
8.732114417,3.338922881,16.2
9.358632104,3.380960697,16.2
9.871062994,3.4259207,16.2
10.2261306,3.461711139,16.2
10.4448086,3.485635464,16.2
10.35690898,3.513774794,17.1
10.4768234,3.5,17.1
10.14720889,3.536716896,17.1
9.806718732,3.571037944,17.1
9.315325904,3.614152096,17.1
8.714530161,3.654464031,17.1
8.112735373,3.674108955,17.1
7.61966662,3.663075023,17.1
7.279491702,3.627133521,17.1
7.07528648,3.575689103,17.1
6.989206302,3.5,17.1
7.07528648,3.424310897,17.1
7.279491702,3.372866479,17.1
7.61966662,3.336924977,17.1
8.112735373,3.325891045,17.1
8.714530161,3.345535969,17.1
9.315325904,3.385847904,17.1
9.806718732,3.428962056,17.1
10.14720889,3.463283104,17.1
10.35690898,3.486225206,17.1
10.26900935,3.513185052,18.0
10.38378986,3.5,18.0
10.06828718,3.535144931,18.0
9.74237447,3.567996587,18.0
9.272019705,3.609264888,18.0
8.696945905,3.647850944,18.0
8.120915832,3.666654807,18.0
7.648956893,3.656093271,18.0
7.323345926,3.621690538,18.0
7.127883368,3.572448616,18.0
7.045488551,3.5,18.0
7.127883368,3.427551384,18.0
7.323345926,3.378309462,18.0
7.648956893,3.343906729,18.0
8.120915832,3.333345193,18.0
8.696945905,3.352149056,18.0
9.272019705,3.390735112,18.0
9.74237447,3.432003413,18.0
10.06828718,3.464855069,18.0
10.26900935,3.486814948,18.0
10.26811825,3.509317561,18.00927161
10.06613387,3.524824043,18.02471177
9.738959183,3.547990541,18.0478014
9.268333672,3.577037926,18.07677527
8.694917734,3.604144251,18.10380616
8.121978642,3.617335,18.11692571
7.652520738,3.60992784,18.10951521
7.327509924,3.58577279,18.085456
7.130861605,3.551127076,18.0509638
7.130861605,3.448872924,18.0509638
7.327509924,3.41422721,18.085456
7.652520738,3.39007216,18.10951521
8.121978642,3.382665,18.11692571
8.694917734,3.395855749,18.10380616
9.268333672,3.422962074,18.07677527
9.738959183,3.452009459,18.0478014
10.06613387,3.475175957,18.02471177
10.26811825,3.490682439,18.00927161
10.26774898,3.5,18.01311368
10.0652418,3.5,18.03494919
9.737544973,3.5,18.06759511
9.266808261,3.5,18.10854748
8.694078875,3.5,18.14674074
8.122418104,3.5,18.16527343
7.653994583,3.5,18.15480571
7.329232823,3.5,18.12081433
7.132094761,3.5,18.07206565
11.30505897,3.5,-1.0
11.14018043,3.508059172,-1.0
10.85203517,3.522701185,-1.0
10.38464788,3.548246701,-1.0
9.711094322,3.588806829,-1.0
8.888927698,3.639824457,-1.0
8.066261116,3.68156233,-1.0
7.391947031,3.70229527,-1.0
6.924679283,3.680658162,-1.0
6.645142501,3.61346241,-1.0
6.534110043,3.5,-1.0
6.603564637,3.353957281,-1.0
6.857782642,3.204697964,-1.0
7.319876145,3.070387167,-1.0
8.010792511,2.994990391,-1.0
8.859420278,3.025900273,-1.0
9.701822507,3.13436914,-1.0
10.38491309,3.265575409,-1.0
10.85430979,3.376745553,-1.0
11.14152987,3.453354445,-1.0
11.30619225,3.5,-2.0
11.14115858,3.509437085,-2.0
10.85271881,3.52622161,-2.0
10.38479403,3.554517132,-2.0
9.710342744,3.597473096,-2.0
8.886910294,3.649094128,-2.0
8.062867382,3.689016575,-2.0
7.387460422,3.705247209,-2.0
6.919694833,3.680090938,-2.0
6.639739,3.612386294,-2.0
6.527679544,3.5,-2.0
6.603358368,3.359105935,-2.0
6.861160272,3.219595672,-2.0
7.324398397,3.095849923,-2.0
8.014332353,3.027967056,-2.0
8.861091302,3.058415011,-2.0
9.702229906,3.160305876,-2.0
10.38502609,3.282577214,-2.0
10.8547091,3.385794286,-2.0
11.14233934,3.456799831,-2.0
11.30732553,3.5,-3.0
11.14213673,3.510814997,-3.0
10.85340244,3.529742034,-3.0
10.38494018,3.560787564,-3.0
9.709591166,3.606139363,-3.0
8.88489289,3.658363798,-3.0
8.059473648,3.69647082,-3.0
7.382973814,3.708199148,-3.0
6.914710383,3.679523714,-3.0
6.634335498,3.611310179,-3.0
6.521249046,3.5,-3.0
6.6031521,3.364254589,-3.0
6.864537902,3.23449338,-3.0
7.328920649,3.121312679,-3.0
8.017872194,3.060943721,-3.0
8.862762325,3.090929749,-3.0
9.702637305,3.186242613,-3.0
10.38513909,3.299579019,-3.0
10.85510841,3.394843019,-3.0
11.14314881,3.460245216,-3.0
11.30845881,3.5,-4.0
11.14311487,3.51219291,-4.0
10.85408608,3.533262459,-4.0
10.38508633,3.567057995,-4.0
9.708839588,3.614805631,-4.0
8.882875486,3.667633469,-4.0
8.056079913,3.703925065,-4.0
7.378487205,3.711151088,-4.0
6.909725933,3.67895649,-4.0
6.628931997,3.610234063,-4.0
6.514818548,3.5,-4.0
6.602945831,3.369403244,-4.0
6.867915532,3.249391088,-4.0
7.333442902,3.146775435,-4.0
8.021412035,3.093920385,-4.0
8.864433349,3.123444487,-4.0
9.703044704,3.21217935,-4.0
10.38525209,3.316580824,-4.0
10.85550772,3.403891752,-4.0
11.14395827,3.463690602,-4.0
11.3095921,3.5,-5.0
11.14409302,3.513570822,-5.0
10.85476972,3.536782883,-5.0
10.38523248,3.573328426,-5.0
9.70808801,3.623471898,-5.0
8.880858083,3.676903139,-5.0
8.052686179,3.71137931,-5.0
7.374000597,3.714103027,-5.0
6.904741483,3.678389266,-5.0
6.623528495,3.609157948,-5.0
6.50838805,3.5,-5.0
6.602739563,3.374551898,-5.0
6.871293163,3.264288796,-5.0
7.337965154,3.172238191,-5.0
8.024951877,3.12689705,-5.0
8.866104373,3.155959225,-5.0
9.703452103,3.238116086,-5.0
10.38536509,3.333582629,-5.0
10.85590703,3.412940486,-5.0
11.14476774,3.467135987,-5.0
11.31072538,3.5,-6.0
11.14507117,3.514948734,-6.0
10.85545336,3.540303308,-6.0
10.38537864,3.579598857,-6.0
9.707336433,3.632138165,-6.0
8.878840679,3.68617281,-6.0
8.049292445,3.718833556,-6.0
7.369513989,3.717054966,-6.0
6.899757033,3.677822043,-6.0
6.618124994,3.608081832,-6.0
6.501957552,3.5,-6.0
6.602533295,3.379700552,-6.0
6.874670793,3.279186505,-6.0
7.342487406,3.197700947,-6.0
8.028491718,3.159873715,-6.0
8.867775397,3.188473963,-6.0
9.703859502,3.264052823,-6.0
10.38547809,3.350584434,-6.0
10.85630634,3.421989219,-6.0
11.14557721,3.470581372,-6.0
11.31185866,3.5,-7.0
11.14604931,3.516326647,-7.0
10.856137,3.543823732,-7.0
10.38552479,3.585869288,-7.0
9.706584855,3.640804432,-7.0
8.876823275,3.695442481,-7.0
8.045898711,3.726287801,-7.0
7.36502738,3.720006906,-7.0
6.894772583,3.677254819,-7.0
6.612721492,3.607005717,-7.0
6.495527054,3.5,-7.0
6.602327026,3.384849206,-7.0
6.878048423,3.294084213,-7.0
7.347009659,3.223163703,-7.0
8.03203156,3.192850379,-7.0
8.86944642,3.220988702,-7.0
9.704266901,3.28998956,-7.0
10.38559109,3.367586239,-7.0
10.85670565,3.431037952,-7.0
11.14638667,3.474026758,-7.0
11.31299194,3.5,-8.0
11.14702746,3.517704559,-8.0
10.85682063,3.547344157,-8.0
10.38567094,3.59213972,-8.0
9.705833277,3.6494707,-8.0
8.874805872,3.704712151,-8.0
8.042504977,3.733742046,-8.0
7.360540772,3.722958845,-8.0
6.889788133,3.676687595,-8.0
6.607317991,3.605929601,-8.0
6.489096556,3.5,-8.0
6.602120758,3.38999786,-8.0
6.881426053,3.308981921,-8.0
7.351531911,3.24862646,-8.0
8.035571401,3.225827044,-8.0
8.871117444,3.25350344,-8.0
9.7046743,3.315926297,-8.0
10.38570409,3.384588044,-8.0
10.85710496,3.440086685,-8.0
11.14719614,3.477472143,-8.0
11.31412522,3.5,-9.0
11.14800561,3.519082471,-9.0
10.85750427,3.550864582,-9.0
10.38581709,3.598410151,-9.0
9.705081699,3.658136967,-9.0
8.872788468,3.713981822,-9.0
8.039111242,3.741196291,-9.0
7.356054163,3.725910784,-9.0
6.884803683,3.676120371,-9.0
6.601914489,3.604853485,-9.0
6.482666058,3.5,-9.0
6.601914489,3.395146515,-9.0
6.884803683,3.323879629,-9.0
7.356054163,3.274089216,-9.0
8.039111242,3.258803709,-9.0
8.872788468,3.286018178,-9.0
9.705081699,3.341863033,-9.0
10.38581709,3.401589849,-9.0
10.85750427,3.449135418,-9.0
11.14800561,3.480917529,-9.0
11.22109169,3.5,-9.9
11.06010598,3.51849273,-9.9
10.77858256,3.549292616,-9.9
10.32147283,3.595368794,-9.9
9.6617755,3.653249759,-9.9
8.855204212,3.707368734,-9.9
8.047291701,3.733742143,-9.9
7.385344436,3.718929033,-9.9
6.928657908,3.670677388,-9.9
6.654511377,3.601612999,-9.9
6.538948308,3.5,-9.9
6.654511377,3.398387001,-9.9
6.928657908,3.329322612,-9.9
7.385344436,3.281070967,-9.9
8.047291701,3.266257857,-9.9
8.855204212,3.292631266,-9.9
9.6617755,3.346750241,-9.9
10.32147283,3.404631206,-9.9
10.77858256,3.450707384,-9.9
11.06010598,3.48150727,-9.9
11.12805815,3.5,-10.8
10.97220636,3.517902988,-10.8
10.69966085,3.547720651,-10.8
10.25712856,3.592327438,-10.8
9.6184693,3.648362551,-10.8
8.837619955,3.700755646,-10.8
8.05547216,3.726287994,-10.8
7.414634709,3.711947282,-10.8
6.972512132,3.665234404,-10.8
6.707108265,3.598372512,-10.8
6.595230557,3.5,-10.8
6.707108265,3.401627488,-10.8
6.972512132,3.334765596,-10.8
7.414634709,3.288052718,-10.8
8.05547216,3.273712006,-10.8
8.837619955,3.299244354,-10.8
9.6184693,3.351637449,-10.8
10.25712856,3.407672562,-10.8
10.69966085,3.452279349,-10.8
10.97220636,3.482097012,-10.8
11.03502461,3.5,-11.7
10.88430673,3.517313246,-11.7
10.62073914,3.546148686,-11.7
10.1927843,3.589286082,-11.7
9.575163101,3.643475343,-11.7
8.820035699,3.694142558,-11.7
8.063652619,3.718833846,-11.7
7.443924982,3.70496553,-11.7
7.016366356,3.659791421,-11.7
6.759705153,3.595132025,-11.7
6.651512806,3.5,-11.7
6.759705153,3.404867975,-11.7
7.016366356,3.340208579,-11.7
7.443924982,3.29503447,-11.7
8.063652619,3.281166154,-11.7
8.820035699,3.305857442,-11.7
9.575163101,3.356524657,-11.7
10.1927843,3.410713918,-11.7
10.62073914,3.453851314,-11.7
10.88430673,3.482686754,-11.7
10.94199108,3.5,-12.6
10.79640711,3.516723504,-12.6
10.54181743,3.544576721,-12.6
10.12844004,3.586244725,-12.6
9.531856901,3.638588135,-12.6
8.802451443,3.687529471,-12.6
8.071833078,3.711379697,-12.6
7.473215255,3.697983779,-12.6
7.06022058,3.654348438,-12.6
6.812302041,3.591891538,-12.6
6.707795055,3.5,-12.6
6.812302041,3.408108462,-12.6
7.06022058,3.345651562,-12.6
7.473215255,3.302016221,-12.6
8.071833078,3.288620303,-12.6
8.802451443,3.312470529,-12.6
9.531856901,3.361411865,-12.6
10.12844004,3.413755275,-12.6
10.54181743,3.455423279,-12.6
10.79640711,3.483276496,-12.6
10.84895754,3.5,-13.5
10.70850748,3.516133762,-13.5
10.46289573,3.543004756,-13.5
10.06409578,3.583203369,-13.5
9.488550702,3.633700927,-13.5
8.784867186,3.680916383,-13.5
8.080013537,3.703925549,-13.5
7.502505528,3.691002028,-13.5
7.104074805,3.648905454,-13.5
6.864898929,3.588651051,-13.5
6.764077305,3.5,-13.5
6.864898929,3.411348949,-13.5
7.104074805,3.351094546,-13.5
7.502505528,3.308997972,-13.5
8.080013537,3.296074451,-13.5
8.784867186,3.319083617,-13.5
9.488550702,3.366299073,-13.5
10.06409578,3.416796631,-13.5
10.46289573,3.456995244,-13.5
10.70850748,3.483866238,-13.5
10.755924,3.5,-14.4
10.62060786,3.51554402,-14.4
10.38397402,3.541432791,-14.4
9.999751517,3.580162013,-14.4
9.445244503,3.628813719,-14.4
8.76728293,3.674303295,-14.4
8.088193996,3.696471401,-14.4
7.531795801,3.684020277,-14.4
7.147929029,3.643462471,-14.4
6.917495816,3.585410564,-14.4
6.820359554,3.5,-14.4
6.917495816,3.414589436,-14.4
7.147929029,3.356537529,-14.4
7.531795801,3.315979723,-14.4
8.088193996,3.303528599,-14.4
8.76728293,3.325696705,-14.4
9.445244503,3.371186281,-14.4
9.999751517,3.419837987,-14.4
10.38397402,3.458567209,-14.4
10.62060786,3.48445598,-14.4
10.66289047,3.5,-15.3
10.53270823,3.514954278,-15.3
10.30505231,3.539860826,-15.3
9.935407255,3.577120656,-15.3
9.401938303,3.623926511,-15.3
8.749698674,3.667690207,-15.3
8.096374455,3.689017252,-15.3
7.561086074,3.677038525,-15.3
7.191783253,3.638019488,-15.3
6.970092704,3.582170077,-15.3
6.876641803,3.5,-15.3
6.970092704,3.417829923,-15.3
7.191783253,3.361980512,-15.3
7.561086074,3.322961475,-15.3
8.096374455,3.310982748,-15.3
8.749698674,3.332309793,-15.3
9.401938303,3.376073489,-15.3
9.935407255,3.422879344,-15.3
10.30505231,3.460139174,-15.3
10.53270823,3.485045722,-15.3
10.56985693,3.5,-16.2
10.4448086,3.514364536,-16.2
10.2261306,3.538288861,-16.2
9.871062994,3.5740793,-16.2
9.358632104,3.619039303,-16.2
8.732114417,3.661077119,-16.2
8.104554914,3.681563104,-16.2
7.590376347,3.670056774,-16.2
7.235637477,3.632576505,-16.2
7.022689592,3.57892959,-16.2
6.932924053,3.5,-16.2
7.022689592,3.42107041,-16.2
7.235637477,3.367423495,-16.2
7.590376347,3.329943226,-16.2
8.104554914,3.318436896,-16.2
8.732114417,3.338922881,-16.2
9.358632104,3.380960697,-16.2
9.871062994,3.4259207,-16.2
10.2261306,3.461711139,-16.2
10.4448086,3.485635464,-16.2
10.4768234,3.5,-17.1
10.35690898,3.513774794,-17.1
10.14720889,3.536716896,-17.1
9.806718732,3.571037944,-17.1
9.315325904,3.614152096,-17.1
8.714530161,3.654464031,-17.1
8.112735373,3.674108955,-17.1
7.61966662,3.663075023,-17.1
7.279491702,3.627133521,-17.1
7.07528648,3.575689103,-17.1
6.989206302,3.5,-17.1
7.07528648,3.424310897,-17.1
7.279491702,3.372866479,-17.1
7.61966662,3.336924977,-17.1
8.112735373,3.325891045,-17.1
8.714530161,3.345535969,-17.1
9.315325904,3.385847904,-17.1
9.806718732,3.428962056,-17.1
10.14720889,3.463283104,-17.1
10.35690898,3.486225206,-17.1
10.38378986,3.5,-18.0
10.26900935,3.513185052,-18.0
10.06828718,3.535144931,-18.0
9.74237447,3.567996587,-18.0
9.272019705,3.609264888,-18.0
8.696945905,3.647850944,-18.0
8.120915832,3.666654807,-18.0
7.648956893,3.656093271,-18.0
7.323345926,3.621690538,-18.0
7.127883368,3.572448616,-18.0
7.045488551,3.5,-18.0
7.127883368,3.427551384,-18.0
7.323345926,3.378309462,-18.0
7.648956893,3.343906729,-18.0
8.120915832,3.333345193,-18.0
8.696945905,3.352149056,-18.0
9.272019705,3.390735112,-18.0
9.74237447,3.432003413,-18.0
10.06828718,3.464855069,-18.0
10.26900935,3.486814948,-18.0
10.26811825,3.509317561,-18.00927161
10.06613387,3.524824043,-18.02471177
9.738959183,3.547990541,-18.0478014
9.268333672,3.577037926,-18.07677527
8.694917734,3.604144251,-18.10380616
8.121978642,3.617335,-18.11692571
7.652520738,3.60992784,-18.10951521
7.327509924,3.58577279,-18.085456
7.130861605,3.551127076,-18.0509638
7.130861605,3.448872924,-18.0509638
7.327509924,3.41422721,-18.085456
7.652520738,3.39007216,-18.10951521
8.121978642,3.382665,-18.11692571
8.694917734,3.395855749,-18.10380616
9.268333672,3.422962074,-18.07677527
9.738959183,3.452009459,-18.0478014
10.06613387,3.475175957,-18.02471177
10.26811825,3.490682439,-18.00927161
10.26774898,3.5,-18.01311368
10.0652418,3.5,-18.03494919
9.737544973,3.5,-18.06759511
9.266808261,3.5,-18.10854748
8.694078875,3.5,-18.14674074
8.122418104,3.5,-18.16527343
7.653994583,3.5,-18.15480571
7.329232823,3.5,-18.12081433
7.132094761,3.5,-18.07206565
27.0415208,0.0,-0.0
26.85453913,0.01980154464,0.6891192458
27.00026235,8.439276786e-17,0.6891192458
26.89154466,0.02067284043,-2.531692786e-18
26.59964456,0.05278582911,0.6891192458
26.62920514,0.05510884819,-6.748887454e-18
26.18562463,0.1021369598,0.6891192458
26.20307841,0.1066326263,-1.305873045e-17
25.58782282,0.1641244631,0.6891192458
25.58776774,0.1713484799,-2.098413675e-17
24.8564636,0.2220121891,0.6891192458
24.83494354,0.231778366,-2.838466341e-17
24.08031512,0.2608382513,-3.194347295e-17
24.12339722,0.2498764411,0.6891192458
23.46202913,0.2431729678,-2.978009967e-17
23.52277723,0.2330319587,0.6891192458
23.03672554,0.1873749204,-2.294680965e-17
23.1095216,0.1797137611,0.6891192458
22.78518589,0.1076647032,-1.318512341e-17
22.86479563,0.1035357548,0.6891192458
22.68918919,0.0,-0.0
22.77055596,8.439276786e-17,0.6891192458
22.86479563,-0.1035357548,0.6891192458
22.78518589,-0.1076647032,1.318512341e-17
23.1095216,-0.1797137611,0.6891192458
23.03672554,-0.1873749204,2.294680965e-17
23.52277723,-0.2330319587,0.6891192458
23.46202913,-0.2431729678,2.978009967e-17
24.12339722,-0.2498764411,0.6891192458
24.08031512,-0.2608382513,3.194347295e-17
24.8564636,-0.2220121891,0.6891192458
24.83494354,-0.231778366,2.838466341e-17
25.58776774,-0.1713484799,2.098413675e-17
25.58782282,-0.1641244631,0.6891192458
26.20307841,-0.1066326263,1.305873045e-17
26.18562463,-0.1021369598,0.6891192458
26.62920514,-0.05510884819,6.748887454e-18
26.59964456,-0.05278582911,0.6891192458
26.89154466,-0.02067284043,2.531692786e-18
26.85453913,-0.01980154464,0.6891192458
26.8175336,0.01893024885,1.378238492
26.95900391,1.687855357e-16,1.378238492
26.57008398,0.05046281003,1.378238492
26.16817085,0.09764129324,1.378238492
25.5878779,0.1569004462,1.378238492
24.87798366,0.2122460121,1.378238492
24.16647933,0.2389146309,1.378238492
23.58352533,0.2228909495,1.378238492
23.18231767,0.1720526017,1.378238492
22.94440538,0.09940680641,1.378238492
22.85192274,1.687855357e-16,1.378238492
22.94440538,-0.09940680641,1.378238492
23.18231767,-0.1720526017,1.378238492
23.58352533,-0.2228909495,1.378238492
24.16647933,-0.2389146309,1.378238492
24.87798366,-0.2122460121,1.378238492
25.5878779,-0.1569004462,1.378238492
26.16817085,-0.09764129324,1.378238492
26.57008398,-0.05046281003,1.378238492
26.8175336,-0.01893024885,1.378238492
26.78052808,0.01805895306,2.067357737
26.91774547,2.531783036e-16,2.067357737
26.5405234,0.04813979095,2.067357737
26.15071707,0.09314562669,2.067357737
25.58793298,0.1496764293,2.067357737
24.89950371,0.2024798351,2.067357737
24.20956143,0.2279528208,2.067357737
23.64427343,0.2127499403,2.067357737
23.25511373,0.1643914424,2.067357737
23.02401512,0.09527785803,2.067357737
22.93328951,2.531783036e-16,2.067357737
23.02401512,-0.09527785803,2.067357737
23.25511373,-0.1643914424,2.067357737
23.64427343,-0.2127499403,2.067357737
24.20956143,-0.2279528208,2.067357737
24.89950371,-0.2024798351,2.067357737
25.58793298,-0.1496764293,2.067357737
26.15071707,-0.09314562669,2.067357737
26.5405234,-0.04813979095,2.067357737
26.78052808,-0.01805895306,2.067357737
26.74352255,0.01718765727,2.756476983
26.87648703,3.375710715e-16,2.756476983
26.51096282,0.04581677187,2.756476983
26.13326329,0.08864996013,2.756476983
25.58798806,0.1424524125,2.756476983
24.92102377,0.1927136581,2.756476983
24.25264354,0.2169910106,2.756476983
23.70502152,0.2026089311,2.756476983
23.3279098,0.1567302831,2.756476983
23.10362487,0.09114890964,2.756476983
23.01465629,3.375710715e-16,2.756476983
23.10362487,-0.09114890964,2.756476983
23.3279098,-0.1567302831,2.756476983
23.70502152,-0.2026089311,2.756476983
24.25264354,-0.2169910106,2.756476983
24.92102377,-0.1927136581,2.756476983
25.58798806,-0.1424524125,2.756476983
26.13326329,-0.08864996013,2.756476983
26.51096282,-0.04581677187,2.756476983
26.74352255,-0.01718765727,2.756476983
26.70651702,0.01631636148,3.445596229
26.83522859,4.219638393e-16,3.445596229
26.48140224,0.04349375279,3.445596229
26.11580951,0.08415429358,3.445596229
25.58804314,0.1352283956,3.445596229
24.94254383,0.1829474811,3.445596229
24.29572564,0.2060292004,3.445596229
23.76576962,0.192467922,3.445596229
23.40070587,0.1490691238,3.445596229
23.18323461,0.08701996126,3.445596229
23.09602306,4.219638393e-16,3.445596229
23.18323461,-0.08701996126,3.445596229
23.40070587,-0.1490691238,3.445596229
23.76576962,-0.192467922,3.445596229
24.29572564,-0.2060292004,3.445596229
24.94254383,-0.1829474811,3.445596229
25.58804314,-0.1352283956,3.445596229
26.11580951,-0.08415429358,3.445596229
26.48140224,-0.04349375279,3.445596229
26.70651702,-0.01631636148,3.445596229
26.6695115,0.01544506569,4.134715475
26.79397015,5.063566072e-16,4.134715475
26.45184166,0.04117073371,4.134715475
26.09835573,0.07965862703,4.134715475
25.58809822,0.1280043787,4.134715475
24.96406389,0.1731813041,4.134715475
24.33880775,0.1950673903,4.134715475
23.82651772,0.1823269128,4.134715475
23.47350193,0.1414079644,4.134715475
23.26284435,0.08289101288,4.134715475
23.17738984,5.063566072e-16,4.134715475
23.26284435,-0.08289101288,4.134715475
23.47350193,-0.1414079644,4.134715475
23.82651772,-0.1823269128,4.134715475
24.33880775,-0.1950673903,4.134715475
24.96406389,-0.1731813041,4.134715475
25.58809822,-0.1280043787,4.134715475
26.09835573,-0.07965862703,4.134715475
26.45184166,-0.04117073371,4.134715475
26.6695115,-0.01544506569,4.134715475
26.63250597,0.0145737699,4.823834721
26.75271171,5.90749375e-16,4.823834721
26.42228108,0.03884771463,4.823834721
26.08090194,0.07516296047,4.823834721
25.5881533,0.1207803619,4.823834721
24.98558395,0.1634151271,4.823834721
24.38188985,0.1841055801,4.823834721
23.88726582,0.1721859036,4.823834721
23.546298,0.1337468051,4.823834721
23.3424541,0.0787620645,4.823834721
23.25875661,5.90749375e-16,4.823834721
23.3424541,-0.0787620645,4.823834721
23.546298,-0.1337468051,4.823834721
23.88726582,-0.1721859036,4.823834721
24.38188985,-0.1841055801,4.823834721
24.98558395,-0.1634151271,4.823834721
25.5881533,-0.1207803619,4.823834721
26.08090194,-0.07516296047,4.823834721
26.42228108,-0.03884771463,4.823834721
26.63250597,-0.0145737699,4.823834721
26.59550044,0.01370247411,5.512953967
26.71145327,6.751421429e-16,5.512953967
26.3927205,0.03652469555,5.512953967
26.06344816,0.07066729392,5.512953967
25.58820838,0.113556345,5.512953967
25.00710401,0.1536489501,5.512953967
24.42497196,0.1731437699,5.512953967
23.94801392,0.1620448945,5.512953967
23.61909406,0.1260856458,5.512953967
23.42206384,0.07463311611,5.512953967
23.34012339,6.751421429e-16,5.512953967
23.42206384,-0.07463311611,5.512953967
23.61909406,-0.1260856458,5.512953967
23.94801392,-0.1620448945,5.512953967
24.42497196,-0.1731437699,5.512953967
25.00710401,-0.1536489501,5.512953967
25.58820838,-0.113556345,5.512953967
26.06344816,-0.07066729392,5.512953967
26.3927205,-0.03652469555,5.512953967
26.59550044,-0.01370247411,5.512953967
26.55849492,0.01283117832,6.202073212
26.67019483,7.595349108e-16,6.202073212
26.36315992,0.03420167647,6.202073212
26.04599438,0.06617162737,6.202073212
25.58826347,0.1063323281,6.202073212
25.02862407,0.1438827732,6.202073212
24.46805406,0.1621819597,6.202073212
24.00876202,0.1519038853,6.202073212
23.69189013,0.1184244865,6.202073212
23.50167359,0.07050416773,6.202073212
23.42149016,7.595349108e-16,6.202073212
23.50167359,-0.07050416773,6.202073212
23.69189013,-0.1184244865,6.202073212
24.00876202,-0.1519038853,6.202073212
24.46805406,-0.1621819597,6.202073212
25.02862407,-0.1438827732,6.202073212
25.58826347,-0.1063323281,6.202073212
26.04599438,-0.06617162737,6.202073212
26.36315992,-0.03420167647,6.202073212
26.55849492,-0.01283117832,6.202073212
26.55805811,0.009060615533,6.211114357
26.36217041,0.02413481242,6.226150271
26.04486895,0.04662510592,6.248553586
25.58827804,0.07478222066,6.276527965
25.03175821,0.1010080695,6.302435167
24.47510507,0.1137585605,6.314857132
24.01806522,0.106612993,6.307624365
23.70059681,0.08326357547,6.284494548
23.50736256,0.04969653889,6.251319227
23.50736256,-0.04969653889,6.251319227
23.70059681,-0.08326357547,6.284494548
24.01806522,-0.106612993,6.307624365
24.47510507,-0.1137585605,6.314857132
25.03175821,-0.1010080695,6.302435167
25.58827804,-0.07478222066,6.276527965
26.04486895,-0.04662510592,6.248553586
26.36217041,-0.02413481242,6.226150271
26.55805811,-0.009060615533,6.211114357
26.55787717,9.996323162e-19,6.21485926
26.3617607,3.681980644e-16,6.236119187
26.04440335,7.265832388e-16,6.267781583
25.58828405,7.237819788e-16,6.307294514
25.03305193,7.491435994e-16,6.34386319
24.47801419,7.64707071e-16,6.36138975
24.02190491,8.398215149e-16,6.351188171
23.70419405,9.12332537e-16,6.318547587
23.50971649,7.928568863e-16,6.271695804
27.00026235,8.439276786e-17,-0.6891192458
26.85453913,0.01980154464,-0.6891192458
26.59964456,0.05278582911,-0.6891192458
26.18562463,0.1021369598,-0.6891192458
25.58782282,0.1641244631,-0.6891192458
24.8564636,0.2220121891,-0.6891192458
24.12339722,0.2498764411,-0.6891192458
23.52277723,0.2330319587,-0.6891192458
23.1095216,0.1797137611,-0.6891192458
22.86479563,0.1035357548,-0.6891192458
22.77055596,8.439276786e-17,-0.6891192458
22.86479563,-0.1035357548,-0.6891192458
23.1095216,-0.1797137611,-0.6891192458
23.52277723,-0.2330319587,-0.6891192458
24.12339722,-0.2498764411,-0.6891192458
24.8564636,-0.2220121891,-0.6891192458
25.58782282,-0.1641244631,-0.6891192458
26.18562463,-0.1021369598,-0.6891192458
26.59964456,-0.05278582911,-0.6891192458
26.85453913,-0.01980154464,-0.6891192458
26.95900391,1.687855357e-16,-1.378238492
26.8175336,0.01893024885,-1.378238492
26.57008398,0.05046281003,-1.378238492
26.16817085,0.09764129324,-1.378238492
25.5878779,0.1569004462,-1.378238492
24.87798366,0.2122460121,-1.378238492
24.16647933,0.2389146309,-1.378238492
23.58352533,0.2228909495,-1.378238492
23.18231767,0.1720526017,-1.378238492
22.94440538,0.09940680641,-1.378238492
22.85192274,1.687855357e-16,-1.378238492
22.94440538,-0.09940680641,-1.378238492
23.18231767,-0.1720526017,-1.378238492
23.58352533,-0.2228909495,-1.378238492
24.16647933,-0.2389146309,-1.378238492
24.87798366,-0.2122460121,-1.378238492
25.5878779,-0.1569004462,-1.378238492
26.16817085,-0.09764129324,-1.378238492
26.57008398,-0.05046281003,-1.378238492
26.8175336,-0.01893024885,-1.378238492
26.91774547,2.531783036e-16,-2.067357737
26.78052808,0.01805895306,-2.067357737
26.5405234,0.04813979095,-2.067357737
26.15071707,0.09314562669,-2.067357737
25.58793298,0.1496764293,-2.067357737
24.89950371,0.2024798351,-2.067357737
24.20956143,0.2279528208,-2.067357737
23.64427343,0.2127499403,-2.067357737
23.25511373,0.1643914424,-2.067357737
23.02401512,0.09527785803,-2.067357737
22.93328951,2.531783036e-16,-2.067357737
23.02401512,-0.09527785803,-2.067357737
23.25511373,-0.1643914424,-2.067357737
23.64427343,-0.2127499403,-2.067357737
24.20956143,-0.2279528208,-2.067357737
24.89950371,-0.2024798351,-2.067357737
25.58793298,-0.1496764293,-2.067357737
26.15071707,-0.09314562669,-2.067357737
26.5405234,-0.04813979095,-2.067357737
26.78052808,-0.01805895306,-2.067357737
26.87648703,3.375710715e-16,-2.756476983
26.74352255,0.01718765727,-2.756476983
26.51096282,0.04581677187,-2.756476983
26.13326329,0.08864996013,-2.756476983
25.58798806,0.1424524125,-2.756476983
24.92102377,0.1927136581,-2.756476983
24.25264354,0.2169910106,-2.756476983
23.70502152,0.2026089311,-2.756476983
23.3279098,0.1567302831,-2.756476983
23.10362487,0.09114890964,-2.756476983
23.01465629,3.375710715e-16,-2.756476983
23.10362487,-0.09114890964,-2.756476983
23.3279098,-0.1567302831,-2.756476983
23.70502152,-0.2026089311,-2.756476983
24.25264354,-0.2169910106,-2.756476983
24.92102377,-0.1927136581,-2.756476983
25.58798806,-0.1424524125,-2.756476983
26.13326329,-0.08864996013,-2.756476983
26.51096282,-0.04581677187,-2.756476983
26.74352255,-0.01718765727,-2.756476983
26.83522859,4.219638393e-16,-3.445596229
26.70651702,0.01631636148,-3.445596229
26.48140224,0.04349375279,-3.445596229
26.11580951,0.08415429358,-3.445596229
25.58804314,0.1352283956,-3.445596229
24.94254383,0.1829474811,-3.445596229
24.29572564,0.2060292004,-3.445596229
23.76576962,0.192467922,-3.445596229
23.40070587,0.1490691238,-3.445596229
23.18323461,0.08701996126,-3.445596229
23.09602306,4.219638393e-16,-3.445596229
23.18323461,-0.08701996126,-3.445596229
23.40070587,-0.1490691238,-3.445596229
23.76576962,-0.192467922,-3.445596229
24.29572564,-0.2060292004,-3.445596229
24.94254383,-0.1829474811,-3.445596229
25.58804314,-0.1352283956,-3.445596229
26.11580951,-0.08415429358,-3.445596229
26.48140224,-0.04349375279,-3.445596229
26.70651702,-0.01631636148,-3.445596229
26.79397015,5.063566072e-16,-4.134715475
26.6695115,0.01544506569,-4.134715475
26.45184166,0.04117073371,-4.134715475
26.09835573,0.07965862703,-4.134715475
25.58809822,0.1280043787,-4.134715475
24.96406389,0.1731813041,-4.134715475
24.33880775,0.1950673903,-4.134715475
23.82651772,0.1823269128,-4.134715475
23.47350193,0.1414079644,-4.134715475
23.26284435,0.08289101288,-4.134715475
23.17738984,5.063566072e-16,-4.134715475
23.26284435,-0.08289101288,-4.134715475
23.47350193,-0.1414079644,-4.134715475
23.82651772,-0.1823269128,-4.134715475
24.33880775,-0.1950673903,-4.134715475
24.96406389,-0.1731813041,-4.134715475
25.58809822,-0.1280043787,-4.134715475
26.09835573,-0.07965862703,-4.134715475
26.45184166,-0.04117073371,-4.134715475
26.6695115,-0.01544506569,-4.134715475
26.75271171,5.90749375e-16,-4.823834721
26.63250597,0.0145737699,-4.823834721
26.42228108,0.03884771463,-4.823834721
26.08090194,0.07516296047,-4.823834721
25.5881533,0.1207803619,-4.823834721
24.98558395,0.1634151271,-4.823834721
24.38188985,0.1841055801,-4.823834721
23.88726582,0.1721859036,-4.823834721
23.546298,0.1337468051,-4.823834721
23.3424541,0.0787620645,-4.823834721
23.25875661,5.90749375e-16,-4.823834721
23.3424541,-0.0787620645,-4.823834721
23.546298,-0.1337468051,-4.823834721
23.88726582,-0.1721859036,-4.823834721
24.38188985,-0.1841055801,-4.823834721
24.98558395,-0.1634151271,-4.823834721
25.5881533,-0.1207803619,-4.823834721
26.08090194,-0.07516296047,-4.823834721
26.42228108,-0.03884771463,-4.823834721
26.63250597,-0.0145737699,-4.823834721
26.71145327,6.751421429e-16,-5.512953967
26.59550044,0.01370247411,-5.512953967
26.3927205,0.03652469555,-5.512953967
26.06344816,0.07066729392,-5.512953967
25.58820838,0.113556345,-5.512953967
25.00710401,0.1536489501,-5.512953967
24.42497196,0.1731437699,-5.512953967
23.94801392,0.1620448945,-5.512953967
23.61909406,0.1260856458,-5.512953967
23.42206384,0.07463311611,-5.512953967
23.34012339,6.751421429e-16,-5.512953967
23.42206384,-0.07463311611,-5.512953967
23.61909406,-0.1260856458,-5.512953967
23.94801392,-0.1620448945,-5.512953967
24.42497196,-0.1731437699,-5.512953967
25.00710401,-0.1536489501,-5.512953967
25.58820838,-0.113556345,-5.512953967
26.06344816,-0.07066729392,-5.512953967
26.3927205,-0.03652469555,-5.512953967
26.59550044,-0.01370247411,-5.512953967
26.67019483,7.595349108e-16,-6.202073212
26.55849492,0.01283117832,-6.202073212
26.36315992,0.03420167647,-6.202073212
26.04599438,0.06617162737,-6.202073212
25.58826347,0.1063323281,-6.202073212
25.02862407,0.1438827732,-6.202073212
24.46805406,0.1621819597,-6.202073212
24.00876202,0.1519038853,-6.202073212
23.69189013,0.1184244865,-6.202073212
23.50167359,0.07050416773,-6.202073212
23.42149016,7.595349108e-16,-6.202073212
23.50167359,-0.07050416773,-6.202073212
23.69189013,-0.1184244865,-6.202073212
24.00876202,-0.1519038853,-6.202073212
24.46805406,-0.1621819597,-6.202073212
25.02862407,-0.1438827732,-6.202073212
