x,y,z
4.553189109,0.2276723205,8.310349212
4.354774056,0.2393549775,8.310349212
4.196550433,0.2590921947,8.310349212
4.077070271,0.2807220866,8.310349212
3.991397449,0.3041000073,8.310349212
3.935498283,0.3328817334,8.310349212
3.910879375,0.36833708,8.310349212
3.917210065,0.411793451,8.310349212
3.960207161,0.4593039968,8.310349212
4.039268852,0.5036199981,8.310349212
4.157864159,0.5398487856,8.310349212
4.319301045,0.5619949947,8.310349212
4.522402043,0.5692627666,8.310349212
4.759860332,0.5626088124,8.310349212
5.016740334,0.543204742,8.310349212
5.272820338,0.5150788823,8.310349212
5.508288105,0.483492927,8.310349212
5.709263166,0.453013373,8.310349212
5.870158622,0.4265012128,8.310349212
5.992480541,0.405112124,8.310349212
6.08187106,0.3887904748,8.310349212
6.145326835,0.3768363141,8.310349212
6.124064908,0.3923204348,8.702473597
6.082407216,0.3858747167,8.702473597
6.022508317,0.3768517,8.702473597
5.938147649,0.3646168957,8.702473597
5.822743469,0.3487431629,8.702473597
5.671006748,0.3293518135,8.702473597
5.481568494,0.3075396722,8.702473597
5.259768581,0.2857266402,8.702473597
5.01877757,0.2675831936,8.702473597
4.777335327,0.2571801621,8.702473597
4.554484725,0.257388095,8.702473597
4.364155552,0.2685946563,8.702473597
4.212379913,0.2875275355,8.702473597
4.097768849,0.3082759584,8.702473597
4.015587396,0.3307011739,8.702473597
3.961966252,0.358309977,8.702473597
3.938350623,0.3923204348,8.702473597
3.944423322,0.4340058565,8.702473597
3.985668185,0.4795802358,8.702473597
4.061507926,0.522090256,8.702473597
4.175270196,0.5568426352,8.702473597
4.330128149,0.5780863342,8.702473597
4.524952304,0.5850579273,8.702473597
4.75273361,0.5786751373,8.702473597
4.999145148,0.5600618285,8.702473597
5.24478929,0.5330821637,8.702473597
5.470661191,0.5027834103,8.702473597
5.663446046,0.4735459698,8.702473597
5.817784633,0.4481142424,8.702473597
5.935121647,0.4275968093,8.702473597
6.020869292,0.4119403057,8.702473597
6.081739096,0.4004733051,8.702473597
6.058679013,0.4163037896,9.094597982
6.018791092,0.4101319092,9.094597982
5.961436917,0.4014922232,9.094597982
5.880660199,0.3897771982,9.094597982
5.770158811,0.3745778397,9.094597982
5.624868422,0.3560103058,9.094597982
5.443478198,0.3351248242,9.094597982
5.231101157,0.3142384895,9.094597982
5.000348326,0.2968658429,9.094597982
4.769163433,0.2869047703,9.094597982
4.555780341,0.2871038695,9.094597982
4.373537047,0.297834335,9.094597982
4.228209393,0.3159628762,9.094597982
4.118467427,0.3358298302,9.094597982
4.039777343,0.3573023404,9.094597982
3.988434222,0.3837382205,9.094597982
3.96582187,0.4163037896,9.094597982
3.971636579,0.456218262,9.094597982
4.011129209,0.4998564749,9.094597982
4.083747001,0.5405605138,9.094597982
4.192676233,0.5738364847,9.094597982
4.340955253,0.5941776736,9.094597982
4.527502565,0.600853088,9.094597982
4.745606887,0.5947414623,9.094597982
4.981549961,0.576918915,9.094597982
5.216758241,0.5510854451,9.094597982
5.433034277,0.5220738936,9.094597982
5.617628926,0.4940785666,9.094597982
5.765410645,0.4697272721,9.094597982
5.877762753,0.4500814946,9.094597982
5.959867524,0.4350901366,9.094597982
6.018151356,0.4241102962,9.094597982
5.993293118,0.4402871444,9.486722367
5.955174968,0.4343891017,9.486722367
5.900365517,0.4261327465,9.486722367
5.823172749,0.4149375008,9.486722367
5.717574154,0.4004125165,9.486722367
5.578730095,0.3826687981,9.486722367
5.405387902,0.3627099761,9.486722367
5.202433733,0.3427503389,9.486722367
4.981919083,0.3261484923,9.486722367
4.76099154,0.3166293786,9.486722367
4.557075956,0.316819644,9.486722367
4.382918543,0.3270740137,9.486722367
4.244038873,0.344398217,9.486722367
4.139166005,0.363383702,9.486722367
4.06396729,0.383903507,9.486722367
4.014902191,0.4091664641,9.486722367
3.993293118,0.4402871444,9.486722367
3.998849836,0.4784306676,9.486722367
4.036590233,0.520132714,9.486722367
4.105986075,0.5590307717,9.486722367
4.21008227,0.5908303343,9.486722367
4.351782357,0.6102690131,9.486722367
4.530052826,0.6166482487,9.486722367
4.738480165,0.6108077873,9.486722367
4.963954775,0.5937760014,9.486722367
5.188727192,0.5690887264,9.486722367
5.395407364,0.5413643769,9.486722367
5.571811806,0.5146111634,9.486722367
5.713036657,0.4913403017,9.486722367
5.820403859,0.4725661799,9.486722367
5.898865757,0.4582399675,9.486722367
5.954563616,0.4477472872,9.486722367
5.954346455,0.4366334019,9.491376355
5.898418266,0.4315301773,9.497908982
5.819841184,0.4246360736,9.506801629
5.712675335,0.4157374214,9.518404183
5.572329876,0.4049466128,9.532691637
5.397911494,0.3929347842,9.548954393
5.194704516,0.3811153709,9.565539543
4.974957837,0.3715793461,9.579890267
4.75562716,0.366602974,9.58914121
4.553545378,0.367740382,9.591212782
4.380814938,0.3751154093,9.58566907
4.242642979,0.3861474134,9.573241281
4.138023362,0.3965086656,9.555887495
4.062990992,0.4069617976,9.535284425
4.014244811,0.4208803873,9.511653392
4.002920207,0.4697457826,9.511656062
4.043715733,0.5028801528,9.535295156
4.114703487,0.5340242263,9.555910575
4.218812571,0.5591049995,9.573279697
4.358986758,0.5736662604,9.585722431
4.534608696,0.5778547825,9.591275336
4.739847872,0.5727942539,9.589203735
4.962354435,0.5593081093,9.579943659
5.185075718,0.5400734448,9.56557872
5.390890081,0.5185790566,9.548979294
5.567456197,0.497865576,9.532705429
5.709475181,0.4798488144,9.518410815
5.817886691,0.4653068141,9.506804382
5.897358949,0.4542053822,9.4979099
5.953914506,0.4460707879,9.491376605
5.953824371,0.4414697221,9.493304798
5.897173203,0.4431500513,9.502543557
5.817653044,0.4454764426,9.515117752
5.709324641,0.4485863316,9.53152012
5.56766898,0.4525500253,9.551712049
5.391922748,0.4572939977,9.57468758
5.187540653,0.4625245862,9.598109518
4.966889922,0.4677053343,9.618368162
4.746913401,0.47216478,9.631422919
4.54428843,0.4752979672,9.634344349
4.370952813,0.4767498892,9.626519402
4.232241325,0.4746947597,9.608977006
4.127927922,0.4669432292,9.58447462
4.054624717,0.4561213159,9.555372521
4.009288971,0.4459400709,9.521976312
14.44094601,0.8101222826,-0.0
14.36909673,0.8101222826,6.109310872e-16
14.36909673,0.8101222826,-0.004152160764
14.26067874,0.8101222826,-0.01023805636
14.26067874,0.8101222826,7.713962266e-16
14.10183317,0.8101222826,-0.01877836838
14.10183317,0.8101222826,2.689009288e-16
13.87888754,0.8101222826,-0.03004567644
13.87888754,0.8101222826,2.684489384e-17
13.58412782,0.8101222826,-0.04365801283
13.58412782,0.8101222826,8.555096737e-17
13.22375411,0.8101222826,-0.05816187838
13.22375411,0.8101222826,4.30341749e-17
12.82301226,0.8101222826,-0.07090550083
12.82301226,0.8101222826,2.775557562e-17
12.42177286,0.8101222826,1.217931681e-17
12.42177286,0.8101222826,-0.07872719032
12.06025807,0.8101222826,-1.38337556e-17
12.06025807,0.8101222826,-0.07946211876
11.76455301,0.8101222826,-9.562386393e-17
11.76455301,0.8101222826,-0.07307844913
11.5417795,0.8101222826,-5.989267239e-17
11.5417795,0.8101222826,-0.06121671583
11.38516473,0.8101222826,-1.670760936e-16
11.38516473,0.8101222826,-0.04565163421
11.28325033,0.8101222826,-3.257369616e-16
11.28325033,0.8101222826,-0.02655344396
11.23901952,0.8101222826,-0.0
11.28325033,0.8101222826,0.02655344396
11.38516473,0.8101222826,0.04565163421
11.5417795,0.8101222826,0.06121671583
11.76455301,0.8101222826,0.07307844913
12.06025807,0.8101222826,0.07946211876
12.42177286,0.8101222826,0.07872719032
12.82301226,0.8101222826,0.07090550083
13.22375411,0.8101222826,0.05816187838
13.58412782,0.8101222826,0.04365801283
13.87888754,0.8101222826,0.03004567644
14.10183317,0.8101222826,0.01877836838
14.26067874,0.8101222826,0.01023805636
14.36909673,0.8101222826,0.004152160764
14.36909673,0.8101222826,-0.008304321528
14.26067874,0.8101222826,-0.02047611271
14.10183317,0.8101222826,-0.03755673677
13.87888754,0.8101222826,-0.06009135288
13.58412782,0.8101222826,-0.08731602566
13.22375411,0.8101222826,-0.1163237568
12.82301226,0.8101222826,-0.1418110017
12.42177286,0.8101222826,-0.1574543806
12.06025807,0.8101222826,-0.1589242375
11.76455301,0.8101222826,-0.1461568983
11.5417795,0.8101222826,-0.1224334317
11.38516473,0.8101222826,-0.09130326842
11.28325033,0.8101222826,-0.05310688791
11.28325033,0.8101222826,0.05310688791
11.38516473,0.8101222826,0.09130326842
11.5417795,0.8101222826,0.1224334317
11.76455301,0.8101222826,0.1461568983
12.06025807,0.8101222826,0.1589242375
12.42177286,0.8101222826,0.1574543806
12.82301226,0.8101222826,0.1418110017
13.22375411,0.8101222826,0.1163237568
13.58412782,0.8101222826,0.08731602566
13.87888754,0.8101222826,0.06009135288
14.10183317,0.8101222826,0.03755673677
14.26067874,0.8101222826,0.02047611271
14.36909673,0.8101222826,0.008304321528
14.36051246,0.9558805869,-0.007458349497
14.43209202,0.9558805869,-8.925122041e-18
14.25250739,0.9558805869,-0.01839002987
14.09427882,0.9558805869,-0.03373016373
13.87222093,0.9558805869,-0.05396829891
13.57867098,0.9558805869,-0.07841879344
13.21983005,0.9558805869,-0.1044731293
12.8208635,0.9558805869,-0.1273744733
12.42147466,0.9558805869,-0.1414558569
12.06166468,0.9558805869,-0.1428430247
11.7673095,0.9558805869,-0.1314876461
11.54538933,0.9558805869,-0.1103391618
11.38903341,0.9558805869,-0.08259290656
11.28648901,0.9558805869,-0.04858254019
11.23901952,0.9558805869,-8.925122041e-18
11.28648901,0.9558805869,0.04858254019
11.38903341,0.9558805869,0.08259290656
11.54538933,0.9558805869,0.1103391618
11.7673095,0.9558805869,0.1314876461
12.06166468,0.9558805869,0.1428430247
12.42147466,0.9558805869,0.1414558569
12.8208635,0.9558805869,0.1273744733
13.21983005,0.9558805869,0.1044731293
13.57867098,0.9558805869,0.07841879344
13.87222093,0.9558805869,0.05396829891
14.09427882,0.9558805869,0.03373016373
14.25250739,0.9558805869,0.01839002987
14.36051246,0.9558805869,0.007458349497
14.35192819,1.101638891,-0.006612377467
14.42323803,1.101638891,-1.785024408e-17
14.24433604,1.101638891,-0.01630394703
14.08672446,1.101638891,-0.02990359069
13.86555432,1.101638891,-0.04784524494
13.57321415,1.101638891,-0.06952156123
13.21590599,1.101638891,-0.09262250193
12.81871474,1.101638891,-0.1129379449
12.42117646,1.101638891,-0.1254573333
12.06307128,1.101638891,-0.1267618118
11.770066,1.101638891,-0.1168183939
11.54899917,1.101638891,-0.09824489198
11.39290208,1.101638891,-0.07388254471
11.28972769,1.101638891,-0.04405819247
11.23901952,1.101638891,-1.785024408e-17
11.28972769,1.101638891,0.04405819247
11.39290208,1.101638891,0.07388254471
11.54899917,1.101638891,0.09824489198
11.770066,1.101638891,0.1168183939
12.06307128,1.101638891,0.1267618118
12.42117646,1.101638891,0.1254573333
12.81871474,1.101638891,0.1129379449
13.21590599,1.101638891,0.09262250193
13.57321415,1.101638891,0.06952156123
13.86555432,1.101638891,0.04784524494
14.08672446,1.101638891,0.02990359069
14.24433604,1.101638891,0.01630394703
14.35192819,1.101638891,0.006612377467
14.34334392,1.247397196,-0.005766405436
14.41438405,1.247397196,-2.677536612e-17
14.2361647,1.247397196,-0.01421786419
14.07917011,1.247397196,-0.02607701765
13.85888772,1.247397196,-0.04172219097
13.56775731,1.247397196,-0.06062432901
13.21198194,1.247397196,-0.08077187451
12.81656599,1.247397196,-0.09850141655
12.42087826,1.247397196,-0.1094588096
12.06447789,1.247397196,-0.110680599
11.77282249,1.247397196,-0.1021491418
11.552609,1.247397196,-0.08615062214
11.39677076,1.247397196,-0.06517218286
11.29296637,1.247397196,-0.03953384475
11.23901952,1.247397196,-2.677536612e-17
11.29296637,1.247397196,0.03953384475
11.39677076,1.247397196,0.06517218286
11.552609,1.247397196,0.08615062214
11.77282249,1.247397196,0.1021491418
12.06447789,1.247397196,0.110680599
12.42087826,1.247397196,0.1094588096
12.81656599,1.247397196,0.09850141655
13.21198194,1.247397196,0.08077187451
13.56775731,1.247397196,0.06062432901
13.85888772,1.247397196,0.04172219097
14.07917011,1.247397196,0.02607701765
14.2361647,1.247397196,0.01421786419
14.34334392,1.247397196,0.005766405436
14.33475965,1.3931555,-0.004920433405
14.40553006,1.3931555,-3.570048816e-17
14.22799335,1.3931555,-0.01213178134
14.07161576,1.3931555,-0.02225044461
13.85222111,1.3931555,-0.035599137
13.56230048,1.3931555,-0.0517270968
13.20805788,1.3931555,-0.06892124709
12.81441723,1.3931555,-0.08406488817
12.42058006,1.3931555,-0.09346028588
12.06588449,1.3931555,-0.09459938613
11.77557898,1.3931555,-0.08747988959
11.55621883,1.3931555,-0.0740563523
11.40063944,1.3931555,-0.056461821
11.29620506,1.3931555,-0.03500949703
11.23901952,1.3931555,-3.570048816e-17
11.29620506,1.3931555,0.03500949703
11.40063944,1.3931555,0.056461821
11.55621883,1.3931555,0.0740563523
11.77557898,1.3931555,0.08747988959
12.06588449,1.3931555,0.09459938613
12.42058006,1.3931555,0.09346028588
12.81441723,1.3931555,0.08406488817
13.20805788,1.3931555,0.06892124709
13.56230048,1.3931555,0.0517270968
13.85222111,1.3931555,0.035599137
14.07161576,1.3931555,0.02225044461
14.22799335,1.3931555,0.01213178134
14.33475965,1.3931555,0.004920433405
14.32617538,1.538913804,-0.004074461374
14.39667607,1.538913804,-4.46256102e-17
14.219822,1.538913804,-0.0100456985
14.06406141,1.538913804,-0.01842387157
13.8455545,1.538913804,-0.02947608303
13.55684364,1.538913804,-0.04282986458
13.20413383,1.538913804,-0.05707061968
12.81226847,1.538913804,-0.0696283598
12.42028187,1.538913804,-0.07746176219
12.0672911,1.538913804,-0.07851817328
11.77833548,1.538913804,-0.07281063742
11.55982866,1.538913804,-0.06196208246
11.40450811,1.538913804,-0.04775145915
11.29944374,1.538913804,-0.03048514931
11.23901952,1.538913804,-4.46256102e-17
11.29944374,1.538913804,0.03048514931
11.40450811,1.538913804,0.04775145915
11.55982866,1.538913804,0.06196208246
11.77833548,1.538913804,0.07281063742
12.0672911,1.538913804,0.07851817328
12.42028187,1.538913804,0.07746176219
12.81226847,1.538913804,0.0696283598
13.20413383,1.538913804,0.05707061968
13.55684364,1.538913804,0.04282986458
13.8455545,1.538913804,0.02947608303
14.06406141,1.538913804,0.01842387157
14.219822,1.538913804,0.0100456985
14.32617538,1.538913804,0.004074461374
14.34595793,1.59604291,-0.004475773188
14.41508832,1.59604291,-4.25509009e-17
14.24166867,1.59604291,-0.01103525548
14.08892493,1.59604291,-0.020238959
13.87463903,1.59604291,-0.03238031205
13.5914869,1.59604291,-0.04704969587
13.24554055,1.59604291,-0.06269110873
12.86115332,1.59604291,-0.07647589396
12.47660981,1.59604291,-0.08505278695
12.13030204,1.59604291,-0.0861554119
11.8468384,1.59604291,-0.07978878194
11.63256402,1.59604291,-0.06773523267
11.48041651,1.59604291,-0.05193694977
11.37787421,1.59604291,-0.03269332216
11.32060834,1.59604291,-4.812375905e-17
11.37787421,1.59604291,0.03269332216
11.48041651,1.59604291,0.05193694977
11.63256402,1.59604291,0.06773523267
11.8468384,1.59604291,0.07978878194
12.13030204,1.59604291,0.0861554119
12.47660981,1.59604291,0.08505278695
12.86115332,1.59604291,0.07647589396
13.24554055,1.59604291,0.06269110873
13.5914869,1.59604291,0.04704969587
13.87463903,1.59604291,0.03238031205
14.08892493,1.59604291,0.020238959
14.24166867,1.59604291,0.01103525548
14.34595793,1.59604291,0.004475773188
14.36488821,1.653172016,-0.004855970671
14.43262714,1.653172016,-4.329851867e-17
14.26269512,1.653172016,-0.01197274987
14.11301544,1.653172016,-0.02195855365
13.90301724,1.653172016,-0.03513175124
13.6255127,1.653172016,-0.05104752289
13.28643952,1.653172016,-0.06801587812
12.9096538,1.653172016,-0.08296303941
12.53267834,1.653172016,-0.09224399081
12.19316692,1.653172016,-0.09338974939
11.91528718,1.653172016,-0.0863976151
11.70531143,1.653172016,-0.07320093939
11.55637722,1.653172016,-0.05589642012
11.45636867,1.653172016,-0.03477640431
11.40219716,1.653172016,-5.162190789e-17
11.45636867,1.653172016,0.03477640431
11.55637722,1.653172016,0.05589642012
11.70531143,1.653172016,0.07320093939
11.91528718,1.653172016,0.0863976151
12.19316692,1.653172016,0.09338974939
12.53267834,1.653172016,0.09224399081
12.9096538,1.653172016,0.08296303941
13.28643952,1.653172016,0.06801587812
13.6255127,1.653172016,0.05104752289
13.90301724,1.653172016,0.03513175124
14.11301544,1.653172016,0.02195855365
14.26269512,1.653172016,0.01197274987
14.36488821,1.653172016,0.004855970671
14.38297724,1.710301122,-0.005214664465
14.44930375,1.710301122,-4.683216814e-17
14.28291205,1.710301122,-0.01285722161
14.13634317,1.710301122,-0.02358089454
13.9306987,1.710301122,-0.03772758304
13.65892976,1.710301122,-0.05481925167
13.32683845,1.710301122,-0.07303947469
12.95777654,1.710301122,-0.08908315118
12.58849304,1.710301122,-0.0990280037
12.25589037,1.710301122,-0.1002137631
11.98368564,1.710301122,-0.09263034075
11.77807407,1.710301122,-0.0783535573
11.63239281,1.710301122,-0.05962574011
11.53492896,1.710301122,-0.03673214707
11.48378598,1.710301122,-5.512005674e-17
11.53492896,1.710301122,0.03673214707
11.63239281,1.710301122,0.05962574011
11.77807407,1.710301122,0.0783535573
11.98368564,1.710301122,0.09263034075
12.25589037,1.710301122,0.1002137631
12.58849304,1.710301122,0.0990280037
12.95777654,1.710301122,0.08908315118
13.32683845,1.710301122,0.07303947469
13.65892976,1.710301122,0.05481925167
13.9306987,1.710301122,0.03772758304
14.13634317,1.710301122,0.02358089454
14.28291205,1.710301122,0.01285722161
14.38297724,1.710301122,0.005214664465
14.40023577,1.767430228,-0.005551472316
14.46512914,1.767430228,-5.311637501e-17
14.3023299,1.767430228,-0.01368772814
14.15891809,1.767430228,-0.02510425285
13.95769274,1.767430228,-0.04016504126
13.69174662,1.767430228,-0.05836086296
13.36674489,1.767430228,-0.07775654479
13.00552801,1.767430228,-0.09482970556
12.64405934,1.767430228,-0.10539759
12.31847691,1.767430228,-0.1066201658
12.05203755,1.767430228,-0.09848028672
11.85085507,1.767430228,-0.08318754408
11.7084658,1.767430228,-0.06312085495
11.61355689,1.767430228,-0.03855834267
11.5653748,1.767430228,-5.861820558e-17
11.61355689,1.767430228,0.03855834267
11.7084658,1.767430228,0.06312085495
11.85085507,1.767430228,0.08318754408
12.05203755,1.767430228,0.09848028672
12.31847691,1.767430228,0.1066201658
12.64405934,1.767430228,0.10539759
13.00552801,1.767430228,0.09482970556
13.36674489,1.767430228,0.07775654479
13.69174662,1.767430228,0.05836086296
13.95769274,1.767430228,0.04016504126
14.15891809,1.767430228,0.02510425285
14.3023299,1.767430228,0.01368772814
14.40023577,1.767430228,0.005551472316
14.41667438,1.824559335,-0.00586601773
14.48011407,1.824559335,-6.211635443e-17
14.32095893,1.824559335,-0.01446334113
14.18075001,1.824559335,-0.0265269258
13.98400856,1.824559335,-0.04244140139
13.72397164,1.824559335,-0.06166839805
13.40616624,1.824559335,-0.08216181541
13.05291457,1.824559335,-0.1001962771
12.69938259,1.824559335,-0.1113456232
12.38093101,1.824559335,-0.1126017801
12.1203466,1.824559335,-0.1039408814
11.92365747,1.824559335,-0.08769744083
11.78459867,1.824559335,-0.06637777086
11.69225424,1.824559335,-0.04025281653
11.64696362,1.824559335,-6.211635443e-17
11.69225424,1.824559335,0.04025281653
11.78459867,1.824559335,0.06637777086
11.92365747,1.824559335,0.08769744083
12.1203466,1.824559335,0.1039408814
12.38093101,1.824559335,0.1126017801
12.69938259,1.824559335,0.1113456232
13.05291457,1.824559335,0.1001962771
13.40616624,1.824559335,0.08216181541
13.72397164,1.824559335,0.06166839805
13.98400856,1.824559335,0.04244140139
14.18075001,1.824559335,0.0265269258
14.32095893,1.824559335,0.01446334113
14.41667438,1.824559335,0.00586601773
14.62198409,2.328726155,-0.005547633334
14.67911927,2.328726155,-1.505304154e-16
14.53577834,2.328726155,-0.01367846373
14.40949506,2.328726155,-0.02508770151
14.2322856,2.328726155,-0.04013920402
13.99805044,2.328726155,-0.05832353788
13.71175782,2.328726155,-0.07770399958
13.39350596,2.328726155,-0.09475268698
13.07497295,2.328726155,-0.1052745278
12.78803316,2.328726155,-0.1064133672
12.55325311,2.328726155,-0.09814187282
12.37610876,2.328726155,-0.082664055
12.25100917,2.328726155,-0.06235040514
12.1682673,2.328726155,-0.03745029801
12.12860287,2.328726155,-9.29876686e-17
12.1682673,2.328726155,0.03745029801
12.25100917,2.328726155,0.06235040514
12.37610876,2.328726155,0.082664055
12.55325311,2.328726155,0.09814187282
12.78803316,2.328726155,0.1064133672
13.07497295,2.328726155,0.1052745278
13.39350596,2.328726155,0.09475268698
13.71175782,2.328726155,0.07770399958
13.99805044,2.328726155,0.05832353788
14.2322856,2.328726155,0.04013920402
14.40949506,2.328726155,0.02508770151
14.53577834,2.328726155,0.01367846373
14.62198409,2.328726155,0.005547633334
14.82286216,2.832892976,-0.005159770157
14.87358575,2.832892976,-2.099127556e-16
14.7463282,2.832892976,-0.01272224779
14.63420902,2.832892976,-0.02333416023
14.47686811,2.832892976,-0.03733401347
14.26888269,2.832892976,-0.05424775116
14.01465506,2.832892976,-0.07227267449
13.73202307,2.832892976,-0.0881235439
13.44911603,2.832892976,-0.09789085911
13.19425602,2.832892976,-0.09890856803
12.98574089,2.832892976,-0.09114722711
12.82847373,2.832892976,-0.07665354724
12.71753658,2.832892976,-0.05763246564
12.64445732,2.832892976,-0.03431012344
12.61024213,2.832892976,-1.238589828e-16
12.64445732,2.832892976,0.03431012344
12.71753658,2.832892976,0.05763246564
12.82847373,2.832892976,0.07665354724
12.98574089,2.832892976,0.09114722711
13.19425602,2.832892976,0.09890856803
13.44911603,2.832892976,0.09789085911
13.73202307,2.832892976,0.0881235439
14.01465506,2.832892976,0.07227267449
14.26888269,2.832892976,0.05424775116
14.47686811,2.832892976,0.03733401347
14.63420902,2.832892976,0.02333416023
14.7463282,2.832892976,0.01272224779
14.82286216,2.832892976,0.005159770157
15.01934883,3.337059797,-0.00470110068
15.06355454,3.337059797,-2.405257858e-16
14.95264755,3.337059797,-0.01159141945
14.85492926,3.337059797,-0.02126029583
14.71779109,3.337059797,-0.03401621778
14.53650035,3.337059797,-0.04942706996
14.31488635,3.337059797,-0.06584923789
14.06849044,3.337059797,-0.08028620096
13.82183266,3.337059797,-0.08916956553
13.59961718,3.337059797,-0.09006230678
13.41782478,3.337059797,-0.08293425555
13.28076477,3.337059797,-0.06964751896
13.18419083,3.337059797,-0.05221117863
13.12083081,3.337059797,-0.03082645369
13.09188138,3.337059797,-1.547302969e-16
13.12083081,3.337059797,0.03082645369
13.18419083,3.337059797,0.05221117863
13.28076477,3.337059797,0.06964751896
13.41782478,3.337059797,0.08293425555
13.59961718,3.337059797,0.09006230678
13.82183266,3.337059797,0.08916956553
14.06849044,3.337059797,0.08028620096
14.31488635,3.337059797,0.06584923789
14.53650035,3.337059797,0.04942706996
14.71779109,3.337059797,0.03401621778
14.85492926,3.337059797,0.02126029583
14.95264755,3.337059797,0.01159141945
15.01934883,3.337059797,0.00470110068
15.21148367,3.841226618,-0.004170314948
15.24906598,3.841226618,-2.426276148e-16
15.15477482,3.841226618,-0.01028274816
15.07169251,3.841226618,-0.01886018162
14.95508896,3.841226618,-0.0301763322
14.80093489,3.841226618,-0.04384771119
14.61247962,3.841226618,-0.05841533365
14.40293222,3.841226618,-0.07121831096
14.19314338,3.841226618,-0.07908592684
14.00413398,3.841226618,-0.07984983939
13.8495194,3.841226618,-0.07348056949
13.7329941,3.841226618,-0.0616278148
13.65098171,3.841226618,-0.04607393901
13.59739421,3.841226618,-0.02699352624
13.57352064,3.841226618,-1.856016111e-16
13.59739421,3.841226618,0.02699352624
13.65098171,3.841226618,0.04607393901
13.7329941,3.841226618,0.0616278148
13.8495194,3.841226618,0.07348056949
14.00413398,3.841226618,0.07984983939
14.19314338,3.841226618,0.07908592684
14.40293222,3.841226618,0.07121831096
14.61247962,3.841226618,0.05841533365
14.80093489,3.841226618,0.04384771119
14.95508896,3.841226618,0.0301763322
15.07169251,3.841226618,0.01886018162
15.15477482,3.841226618,0.01028274816
15.21148367,3.841226618,0.004170314948
15.39930573,4.345393439,-0.003566116258
15.4301599,4.345393439,-2.164729253e-16
15.35274791,4.345393439,-0.008793036033
15.28453502,4.345393439,-0.01612795086
15.18879571,4.345393439,-0.0258049679
15.06221734,4.345393439,-0.03749603114
14.90746243,4.345393439,-0.04995279129
14.73537227,4.345393439,-0.06089775267
14.56306845,4.345393439,-0.06761547282
14.40782352,4.345393439,-0.06824667196
14.2808392,4.345393439,-0.06276400658
14.1851738,4.345393439,-0.05257646271
14.11791888,4.345393439,-0.0392082687
14.07415389,4.345393439,-0.02280563629
14.0551599,4.345393439,-2.164729253e-16
14.07415389,4.345393439,0.02280563629
14.11791888,4.345393439,0.0392082687
14.1851738,4.345393439,0.05257646271
14.2808392,4.345393439,0.06276400658
14.40782352,4.345393439,0.06824667196
14.56306845,4.345393439,0.06761547282
14.73537227,4.345393439,0.06089775267
14.90746243,4.345393439,0.04995279129
15.06221734,4.345393439,0.03749603114
15.18879571,4.345393439,0.0258049679
15.28453502,4.345393439,0.01612795086
15.35274791,4.345393439,0.008793036033
15.39930573,4.345393439,0.003566116258
15.40021652,4.347736804,-0.002517405697
15.35505766,4.351139364,-0.006203900836
15.28894552,4.355843882,-0.0113701976
15.1964093,4.361811213,-0.01816521775
15.07424219,4.368691924,-0.02635166149
14.92499068,4.37548079,-0.03504639771
14.75863311,4.380775707,-0.04266744111
14.59081383,4.383277512,-0.04734344703
14.43744045,4.382419413,-0.04779514317
14.30922726,4.378593664,-0.04399731962
14.20967126,4.372709876,-0.03691000312
14.13657488,4.365533926,-0.02757429465
14.08516909,4.357039644,-0.01607234381
14.08516909,4.357039644,0.01607234381
14.13657488,4.365533926,0.02757429465
14.20967126,4.372709876,0.03691000312
14.30922726,4.378593664,0.04399731962
14.43744045,4.382419413,0.04779514317
14.59081383,4.383277512,0.04734344703
14.75863311,4.380775707,0.04266744111
14.92499068,4.37548079,0.03504639771
15.07424219,4.368691924,0.02635166149
15.1964093,4.361811213,0.01816521775
15.28894552,4.355843882,0.0113701976
15.35505766,4.351139364,0.006203900836
15.40021652,4.347736804,0.002517405697
15.4005937,4.348707269,4.620851183e-17
15.35601389,4.353518199,1.153526594e-16
15.29077064,4.360168432,-9.802463517e-17
15.1995571,4.368599177,-1.951755995e-16
15.07920904,4.378315414,-1.705855702e-16
14.93222352,4.387896005,-1.908598225e-16
14.76822381,4.395364195,-2.125938577e-16
14.60224919,4.398891571,-2.205961169e-16
14.44964864,4.397681632,-2.404035177e-16
14.32093546,4.392286549,-2.441194027e-16
14.21978355,4.383985804,-2.562999566e-16
14.14428393,4.373856403,-2.72194775e-16
14.08972641,4.361858023,-3.590521403e-16
14.64436377,0.8254076087,-0.0
14.56189488,0.8195725561,-0.3608247764
14.61237996,0.8254076087,-0.3608247764
14.59197719,0.8193527812,-0.0
14.4857147,0.8110200162,-0.3608247764
14.51292772,0.8104781132,-0.0
14.37410146,0.7990182724,-0.3608247764
14.39711061,0.7980243285,-0.0
14.21744815,0.7831842673,-0.3608247764
14.23455702,0.7815939418,-0.0
14.01033448,0.764054782,-0.3608247764
14.01964249,0.761743952,-0.0
13.75711698,0.7436724262,-0.3608247764
13.75688766,0.7405939028,-0.0
13.47553471,0.725763749,-0.3608247764
13.4646997,0.7220107023,-0.0
13.17214896,0.7106048384,-0.0
13.19360282,0.7147718891,-0.3608247764
12.90856214,0.7095331397,-0.0
12.93958354,0.7137390904,-0.3608247764
12.69295836,0.7188420323,-0.0
12.73180563,0.7227100937,-0.3608247764
12.53053026,0.7361392309,-0.0
12.57527326,0.7393794477,-0.3608247764
12.41633966,0.7588367828,-0.0
12.4652275,0.7612531358,-0.3608247764
12.34203207,0.7866864386,-0.0
12.39361708,0.7880919193,-0.3608247764
12.30978261,0.8254076087,-0.0
12.36253819,0.8254076087,-0.3608247764
12.39361708,0.8627232981,-0.3608247764
12.34203207,0.8641287788,-0.0
12.4652275,0.8895620816,-0.3608247764
12.41633966,0.8919784346,-0.0
12.57527326,0.9114357697,-0.3608247764
12.53053026,0.9146759865,-0.0
12.73180563,0.9281051237,-0.3608247764
12.69295836,0.9319731851,-0.0
12.93958354,0.937076127,-0.3608247764
12.90856214,0.9412820776,-0.0
13.19360282,0.9360433283,-0.3608247764
13.17214896,0.940210379,-0.0
13.47553471,0.9250514684,-0.3608247764
13.4646997,0.9288045151,-0.0
13.75688766,0.9102213146,-0.0
13.75711698,0.9071427912,-0.3608247764
14.01964249,0.8890712654,-0.0
14.01033448,0.8867604354,-0.3608247764
14.23455702,0.8692212756,-0.0
14.21744815,0.8676309501,-0.3608247764
14.39711061,0.8527908889,-0.0
14.37410146,0.851796945,-0.3608247764
14.51292772,0.8403371042,-0.0
14.4857147,0.8397952012,-0.3608247764
14.59197719,0.8314624362,-0.0
14.56189488,0.8312426613,-0.3608247764
14.53181256,0.8197923311,-0.7216495528
14.58039614,0.8254076087,-0.7216495528
14.45850168,0.8115619192,-0.7216495528
14.35109231,0.8000122164,-0.7216495528
14.20033928,0.7847745928,-0.7216495528
14.00102647,0.766365612,-0.7216495528
13.75734631,0.7467509496,-0.7216495528
13.48636972,0.7295167957,-0.7216495528
13.21505669,0.7189389398,-0.7216495528
12.97060494,0.7179450411,-0.7216495528
12.7706529,0.7265781551,-0.7216495528
12.62001627,0.7426196644,-0.7216495528
12.51411533,0.7636694887,-0.7216495528
12.44520209,0.7894974,-0.7216495528
12.41529378,0.8254076087,-0.7216495528
12.44520209,0.8613178174,-0.7216495528
12.51411533,0.8871457287,-0.7216495528
12.62001627,0.908195553,-0.7216495528
12.7706529,0.9242370623,-0.7216495528
12.97060494,0.9328701763,-0.7216495528
13.21505669,0.9318762775,-0.7216495528
13.48636972,0.9212984217,-0.7216495528
13.75734631,0.9040642678,-0.7216495528
14.00102647,0.8844496054,-0.7216495528
14.20033928,0.8660406246,-0.7216495528
14.35109231,0.850803001,-0.7216495528
14.45850168,0.8392532982,-0.7216495528
14.53181256,0.8310228863,-0.7216495528
14.50173025,0.820012106,-1.082474329
14.54841232,0.8254076087,-1.082474329
14.43128866,0.8121038222,-1.082474329
14.32808316,0.8010061603,-1.082474329
14.18323042,0.7863649183,-1.082474329
13.99171846,0.768676442,-1.082474329
13.75757563,0.749829473,-1.082474329
13.49720473,0.7332698423,-1.082474329
13.23651055,0.7231059906,-1.082474329
13.00162634,0.7221509918,-1.082474329
12.80950018,0.7304462165,-1.082474329
12.66475927,0.7458598812,-1.082474329
12.56300316,0.7660858416,-1.082474329
12.49678711,0.7909028808,-1.082474329
12.46804937,0.8254076087,-1.082474329
12.49678711,0.8599123366,-1.082474329
12.56300316,0.8847293758,-1.082474329
12.66475927,0.9049553362,-1.082474329
12.80950018,0.9203690009,-1.082474329
13.00162634,0.9286642256,-1.082474329
13.23651055,0.9277092268,-1.082474329
13.49720473,0.9175453751,-1.082474329
13.75757563,0.9009857444,-1.082474329
13.99171846,0.8821387754,-1.082474329
14.18323042,0.8644502991,-1.082474329
14.32808316,0.8498090571,-1.082474329
14.43128866,0.8387113952,-1.082474329
14.50173025,0.8308031114,-1.082474329
14.47164793,0.820231881,-1.443299106
14.51642851,0.8254076087,-1.443299106
14.40407564,0.8126457252,-1.443299106
14.30507401,0.8020001043,-1.443299106
14.16612155,0.7879552438,-1.443299106
13.98241045,0.770987272,-1.443299106
13.75780496,0.7529079964,-1.443299106
13.50803974,0.737022889,-1.443299106
13.25796442,0.7272730413,-1.443299106
13.03264774,0.7263569425,-1.443299106
12.84834745,0.7343142779,-1.443299106
12.70950227,0.7491000979,-1.443299106
12.611891,0.7685021945,-1.443299106
12.54837212,0.7923083615,-1.443299106
12.52080495,0.8254076087,-1.443299106
12.54837212,0.8585068559,-1.443299106
12.611891,0.8823130229,-1.443299106
12.70950227,0.9017151195,-1.443299106
12.84834745,0.9165009395,-1.443299106
13.03264774,0.9244582749,-1.443299106
13.25796442,0.9235421761,-1.443299106
13.50803974,0.9137923284,-1.443299106
13.75780496,0.897907221,-1.443299106
13.98241045,0.8798279454,-1.443299106
14.16612155,0.8628599736,-1.443299106
14.30507401,0.8488151131,-1.443299106
14.40407564,0.8381694922,-1.443299106
14.47164793,0.8305833364,-1.443299106
14.44156561,0.8204516559,-1.804123882
14.48444469,0.8254076087,-1.804123882
14.37686262,0.8131876282,-1.804123882
14.28206486,0.8029940482,-1.804123882
14.14901269,0.7895455693,-1.804123882
13.97310244,0.7732981021,-1.804123882
13.75803429,0.7559865198,-1.804123882
13.51887475,0.7407759357,-1.804123882
13.27941828,0.7314400921,-1.804123882
13.06366914,0.7305628932,-1.804123882
12.88719473,0.7381823393,-1.804123882
12.75424528,0.7523403147,-1.804123882
12.66077883,0.7709185474,-1.804123882
12.59995713,0.7937138422,-1.804123882
12.57356054,0.8254076087,-1.804123882
12.59995713,0.8571013752,-1.804123882
12.66077883,0.87989667,-1.804123882
12.75424528,0.8984749027,-1.804123882
12.88719473,0.9126328781,-1.804123882
13.06366914,0.9202523242,-1.804123882
13.27941828,0.9193751253,-1.804123882
13.51887475,0.9100392817,-1.804123882
13.75803429,0.8948286975,-1.804123882
13.97310244,0.8775171153,-1.804123882
14.14901269,0.8612696481,-1.804123882
14.28206486,0.8478211692,-1.804123882
14.37686262,0.8376275892,-1.804123882
14.44156561,0.8303635614,-1.804123882
14.4114833,0.8206714309,-2.164948659
14.45246087,0.8254076087,-2.164948659
14.3496496,0.8137295312,-2.164948659
14.2590557,0.8039879921,-2.164948659
14.13190382,0.7911358948,-2.164948659
13.96379442,0.7756089321,-2.164948659
13.75826361,0.7590650433,-2.164948659
13.52970977,0.7445289824,-2.164948659
13.30087215,0.7356071428,-2.164948659
13.09469054,0.7347688439,-2.164948659
12.926042,0.7420504007,-2.164948659
12.79898828,0.7555805314,-2.164948659
12.70966667,0.7733349003,-2.164948659
12.65154214,0.7951193229,-2.164948659
12.62631612,0.8254076087,-2.164948659
12.65154214,0.8556958945,-2.164948659
12.70966667,0.877480317,-2.164948659
12.79898828,0.895234686,-2.164948659
12.926042,0.9087648167,-2.164948659
13.09469054,0.9160463735,-2.164948659
13.30087215,0.9152080746,-2.164948659
13.52970977,0.906286235,-2.164948659
13.75826361,0.8917501741,-2.164948659
13.96379442,0.8752062853,-2.164948659
14.13190382,0.8596793226,-2.164948659
14.2590557,0.8468272253,-2.164948659
14.3496496,0.8370856862,-2.164948659
14.4114833,0.8301437865,-2.164948659
14.38140098,0.8208912058,-2.525773435
14.42047706,0.8254076087,-2.525773435
14.32243658,0.8142714342,-2.525773435
14.23604655,0.8049819361,-2.525773435
14.11479495,0.7927262203,-2.525773435
13.95448641,0.7779197621,-2.525773435
13.75849294,0.7621435667,-2.525773435
13.54054478,0.748282029,-2.525773435
13.32232601,0.7397741935,-2.525773435
13.12571195,0.7389747946,-2.525773435
12.96488927,0.7459184621,-2.525773435
12.84373128,0.7588207482,-2.525773435
12.7585545,0.7757512533,-2.525773435
12.70312715,0.7965248036,-2.525773435
12.67907171,0.8254076087,-2.525773435
12.70312715,0.8542904137,-2.525773435
12.7585545,0.8750639641,-2.525773435
12.84373128,0.8919944692,-2.525773435
12.96488927,0.9048967553,-2.525773435
13.12571195,0.9118404228,-2.525773435
13.32232601,0.9110410238,-2.525773435
13.54054478,0.9025331884,-2.525773435
13.75849294,0.8886716507,-2.525773435
13.95448641,0.8728954553,-2.525773435
14.11479495,0.8580889971,-2.525773435
14.23604655,0.8458332813,-2.525773435
14.32243658,0.8365437832,-2.525773435
14.38140098,0.8299240115,-2.525773435
14.35131867,0.8211109808,-2.886598211
14.38849324,0.8254076087,-2.886598211
14.29522356,0.8148133372,-2.886598211
14.2130374,0.80597588,-2.886598211
14.09768609,0.7943165458,-2.886598211
13.9451784,0.7802305921,-2.886598211
13.75872226,0.7652220901,-2.886598211
13.55137979,0.7520350757,-2.886598211
13.34377987,0.7439412443,-2.886598211
13.15673335,0.7431807453,-2.886598211
13.00373655,0.7497865235,-2.886598211
12.88847429,0.7620609649,-2.886598211
12.80744233,0.7781676062,-2.886598211
12.75471216,0.7979302844,-2.886598211
12.7318273,0.8254076087,-2.886598211
12.75471216,0.852884933,-2.886598211
12.80744233,0.8726476112,-2.886598211
12.88847429,0.8887542525,-2.886598211
13.00373655,0.9010286939,-2.886598211
13.15673335,0.9076344721,-2.886598211
13.34377987,0.9068739731,-2.886598211
13.55137979,0.8987801417,-2.886598211
13.75872226,0.8855931273,-2.886598211
13.9451784,0.8705846253,-2.886598211
14.09768609,0.8564986716,-2.886598211
14.2130374,0.8448393374,-2.886598211
14.29522356,0.8360018802,-2.886598211
14.35131867,0.8297042366,-2.886598211
14.32123635,0.8213307558,-3.247422988
14.35650942,0.8254076087,-3.247422988
14.26801054,0.8153552402,-3.247422988
14.19002825,0.806969824,-3.247422988
14.08057722,0.7959068713,-3.247422988
13.93587039,0.7825414221,-3.247422988
13.75895159,0.7683006135,-3.247422988
13.5622148,0.7557881224,-3.247422988
13.36523374,0.748108295,-3.247422988
13.18775475,0.747386696,-3.247422988
13.04258382,0.7536545849,-3.247422988
12.93321729,0.7653011817,-3.247422988
12.85633017,0.7805839591,-3.247422988
12.80629718,0.7993357651,-3.247422988
12.78458288,0.8254076087,-3.247422988
12.80629718,0.8514794523,-3.247422988
12.85633017,0.8702312583,-3.247422988
12.93321729,0.8855140357,-3.247422988
13.04258382,0.8971606325,-3.247422988
13.18775475,0.9034285214,-3.247422988
13.36523374,0.9027069224,-3.247422988
13.5622148,0.895027095,-3.247422988
13.75895159,0.8825146039,-3.247422988
13.93587039,0.8682737953,-3.247422988
14.08057722,0.8549083461,-3.247422988
14.19002825,0.8438453934,-3.247422988
14.26801054,0.8354599772,-3.247422988
14.32123635,0.8294844616,-3.247422988
14.29115403,0.8215505307,-3.608247764
14.32452561,0.8254076087,-3.608247764
14.24079752,0.8158971432,-3.608247764
14.1670191,0.8079637679,-3.608247764
14.06346836,0.7974971968,-3.608247764
13.92656238,0.7848522521,-3.608247764
13.75918092,0.7713791369,-3.608247764
13.57304981,0.759541169,-3.608247764
13.3866876,0.7522753458,-3.608247764
13.21877615,0.7515926467,-3.608247764
13.08143109,0.7575226463,-3.608247764
12.97796029,0.7685413984,-3.608247764
12.905218,0.783000312,-3.608247764
12.85788219,0.8007412458,-3.608247764
12.83733847,0.8254076087,-3.608247764
12.85788219,0.8500739716,-3.608247764
12.905218,0.8678149054,-3.608247764
12.97796029,0.882273819,-3.608247764
13.08143109,0.8932925711,-3.608247764
13.21877615,0.8992225707,-3.608247764
13.3866876,0.8985398716,-3.608247764
13.57304981,0.8912740484,-3.608247764
13.75918092,0.8794360805,-3.608247764
13.92656238,0.8659629652,-3.608247764
14.06346836,0.8533180206,-3.608247764
14.1670191,0.8428514495,-3.608247764
14.24079752,0.8349180742,-3.608247764
14.29115403,0.8292646867,-3.608247764
14.26107172,0.8217703057,-3.969072541
14.29254179,0.8254076087,-3.969072541
14.2135845,0.8164390462,-3.969072541
14.14400995,0.8089577118,-3.969072541
14.04635949,0.7990875223,-3.969072541
13.91725437,0.7871630822,-3.969072541
13.75941024,0.7744576603,-3.969072541
13.58388482,0.7632942157,-3.969072541
13.40814147,0.7564423965,-3.969072541
13.24979755,0.7557985974,-3.969072541
13.12027837,0.7613907077,-3.969072541
13.0227033,0.7717816152,-3.969072541
12.95410584,0.7854166649,-3.969072541
12.9094672,0.8021467265,-3.969072541
12.89009405,0.8254076087,-3.969072541
12.9094672,0.8486684909,-3.969072541
12.95410584,0.8653985525,-3.969072541
13.0227033,0.8790336022,-3.969072541
13.12027837,0.8894245097,-3.969072541
13.24979755,0.89501662,-3.969072541
13.40814147,0.8943728209,-3.969072541
13.58388482,0.8875210017,-3.969072541
13.75941024,0.8763575571,-3.969072541
13.91725437,0.8636521352,-3.969072541
14.04635949,0.8517276951,-3.969072541
14.14400995,0.8418575055,-3.969072541
14.2135845,0.8343761712,-3.969072541
14.26107172,0.8290449117,-3.969072541
14.2309894,0.8219900806,-4.329897317
14.26055797,0.8254076087,-4.329897317
14.18637148,0.8169809492,-4.329897317
14.1210008,0.8099516558,-4.329897317
14.02925063,0.8006778478,-4.329897317
13.90794636,0.7894739122,-4.329897317
13.75963957,0.7775361837,-4.329897317
13.59471983,0.7670472624,-4.329897317
13.42959533,0.7606094472,-4.329897317
13.28081895,0.7600045481,-4.329897317
13.15912564,0.7652587691,-4.329897317
13.0674463,0.7750218319,-4.329897317
13.00299367,0.7878330179,-4.329897317
12.96105221,0.8035522073,-4.329897317
12.94284964,0.8254076087,-4.329897317
12.96105221,0.8472630101,-4.329897317
13.00299367,0.8629821995,-4.329897317
13.0674463,0.8757933855,-4.329897317
13.15912564,0.8855564483,-4.329897317
13.28081895,0.8908106693,-4.329897317
13.42959533,0.8902057702,-4.329897317
13.59471983,0.883767955,-4.329897317
13.75963957,0.8732790337,-4.329897317
13.90794636,0.8613413052,-4.329897317
14.02925063,0.8501373696,-4.329897317
14.1210008,0.8408635616,-4.329897317
14.18637148,0.8338342682,-4.329897317
14.2309894,0.8288251368,-4.329897317
14.23017356,0.822997121,-4.340723736
14.18450001,0.8194691115,-4.356588362
14.11795277,0.8145290403,-4.378842278
14.0256602,0.8080453928,-4.408159582
13.90506374,0.800251835,-4.443505499
13.75973979,0.7920016059,-4.481009017
13.60023981,0.7847977049,-4.513722296
13.44170268,0.7803957531,-4.533521214
13.29845338,0.779981474,-4.5350124
13.17940443,0.7835700481,-4.518306738
13.08700963,0.7902674015,-4.487682629
13.01894539,0.7991110689,-4.447636365
12.97085732,0.8100471937,-4.398484864
12.97085732,0.8407680237,-4.398484864
13.01894539,0.8517041485,-4.447636365
13.08700963,0.8605478159,-4.487682629
13.17940443,0.8672451693,-4.518306738
13.29845338,0.8708337434,-4.5350124
13.44170268,0.8704194643,-4.533521214
13.60023981,0.8660175125,-4.513722296
13.75973979,0.8588136115,-4.481009017
13.90506374,0.8505633824,-4.443505499
14.0256602,0.8427698246,-4.408159582
14.11795277,0.8362861771,-4.378842278
14.18450001,0.8313461059,-4.356588362
14.23017356,0.8278180964,-4.340723736
14.22983554,0.8254076087,-4.345209193
14.18372476,0.8254076087,-4.367644823
14.11669044,0.8254076087,-4.399112298
14.02417392,0.8254076087,-4.440555473
13.90387113,0.8254076087,-4.490506645
13.75978122,0.8254076087,-4.543487761
13.60252087,0.8254076087,-4.589685593
13.44670424,0.8254076087,-4.617638541
13.30573801,0.8254076087,-4.619743643
13.18778374,0.8254076087,-4.59615853
13.09509741,0.8254076087,-4.552913444
13.02554444,0.8254076087,-4.496343687
12.97491686,0.8254076087,-4.426881739
14.61237996,0.8254076087,0.3608247764
14.56189488,0.8195725561,0.3608247764
14.4857147,0.8110200162,0.3608247764
14.37410146,0.7990182724,0.3608247764
14.21744815,0.7831842673,0.3608247764
14.01033448,0.764054782,0.3608247764
13.75711698,0.7436724262,0.3608247764
13.47553471,0.725763749,0.3608247764
13.19360282,0.7147718891,0.3608247764
12.93958354,0.7137390904,0.3608247764
12.73180563,0.7227100937,0.3608247764
12.57527326,0.7393794477,0.3608247764
12.4652275,0.7612531358,0.3608247764
12.39361708,0.7880919193,0.3608247764
12.36253819,0.8254076087,0.3608247764
12.39361708,0.8627232981,0.3608247764
12.4652275,0.8895620816,0.3608247764
12.57527326,0.9114357697,0.3608247764
12.73180563,0.9281051237,0.3608247764
12.93958354,0.937076127,0.3608247764
13.19360282,0.9360433283,0.3608247764
13.47553471,0.9250514684,0.3608247764
13.75711698,0.9071427912,0.3608247764
14.01033448,0.8867604354,0.3608247764
14.21744815,0.8676309501,0.3608247764
14.37410146,0.851796945,0.3608247764
14.4857147,0.8397952012,0.3608247764
14.56189488,0.8312426613,0.3608247764
14.58039614,0.8254076087,0.7216495528
14.53181256,0.8197923311,0.7216495528
14.45850168,0.8115619192,0.7216495528
14.35109231,0.8000122164,0.7216495528
14.20033928,0.7847745928,0.7216495528
14.00102647,0.766365612,0.7216495528
13.75734631,0.7467509496,0.7216495528
13.48636972,0.7295167957,0.7216495528
13.21505669,0.7189389398,0.7216495528
12.97060494,0.7179450411,0.7216495528
12.7706529,0.7265781551,0.7216495528
12.62001627,0.7426196644,0.7216495528
12.51411533,0.7636694887,0.7216495528
12.44520209,0.7894974,0.7216495528
12.41529378,0.8254076087,0.7216495528
12.44520209,0.8613178174,0.7216495528
12.51411533,0.8871457287,0.7216495528
12.62001627,0.908195553,0.7216495528
12.7706529,0.9242370623,0.7216495528
12.97060494,0.9328701763,0.7216495528
13.21505669,0.9318762775,0.7216495528
13.48636972,0.9212984217,0.7216495528
13.75734631,0.9040642678,0.7216495528
14.00102647,0.8844496054,0.7216495528
14.20033928,0.8660406246,0.7216495528
14.35109231,0.850803001,0.7216495528
14.45850168,0.8392532982,0.7216495528
14.53181256,0.8310228863,0.7216495528
14.54841232,0.8254076087,1.082474329
14.50173025,0.820012106,1.082474329
14.43128866,0.8121038222,1.082474329
14.32808316,0.8010061603,1.082474329
14.18323042,0.7863649183,1.082474329
13.99171846,0.768676442,1.082474329
13.75757563,0.749829473,1.082474329
13.49720473,0.7332698423,1.082474329
13.23651055,0.7231059906,1.082474329
13.00162634,0.7221509918,1.082474329
12.80950018,0.7304462165,1.082474329
12.66475927,0.7458598812,1.082474329
12.56300316,0.7660858416,1.082474329
12.49678711,0.7909028808,1.082474329
12.46804937,0.8254076087,1.082474329
12.49678711,0.8599123366,1.082474329
12.56300316,0.8847293758,1.082474329
12.66475927,0.9049553362,1.082474329
12.80950018,0.9203690009,1.082474329
13.00162634,0.9286642256,1.082474329
13.23651055,0.9277092268,1.082474329
13.49720473,0.9175453751,1.082474329
13.75757563,0.9009857444,1.082474329
13.99171846,0.8821387754,1.082474329
14.18323042,0.8644502991,1.082474329
14.32808316,0.8498090571,1.082474329
14.43128866,0.8387113952,1.082474329
14.50173025,0.8308031114,1.082474329
14.51642851,0.8254076087,1.443299106
14.47164793,0.820231881,1.443299106
14.40407564,0.8126457252,1.443299106
14.30507401,0.8020001043,1.443299106
14.16612155,0.7879552438,1.443299106
13.98241045,0.770987272,1.443299106
13.75780496,0.7529079964,1.443299106
13.50803974,0.737022889,1.443299106
13.25796442,0.7272730413,1.443299106
13.03264774,0.7263569425,1.443299106
12.84834745,0.7343142779,1.443299106
12.70950227,0.7491000979,1.443299106
12.611891,0.7685021945,1.443299106
12.54837212,0.7923083615,1.443299106
12.52080495,0.8254076087,1.443299106
12.54837212,0.8585068559,1.443299106
12.611891,0.8823130229,1.443299106
12.70950227,0.9017151195,1.443299106
12.84834745,0.9165009395,1.443299106
13.03264774,0.9244582749,1.443299106
13.25796442,0.9235421761,1.443299106
13.50803974,0.9137923284,1.443299106
13.75780496,0.897907221,1.443299106
13.98241045,0.8798279454,1.443299106
14.16612155,0.8628599736,1.443299106
14.30507401,0.8488151131,1.443299106
14.40407564,0.8381694922,1.443299106
14.47164793,0.8305833364,1.443299106
14.48444469,0.8254076087,1.804123882
14.44156561,0.8204516559,1.804123882
14.37686262,0.8131876282,1.804123882
14.28206486,0.8029940482,1.804123882
14.14901269,0.7895455693,1.804123882
13.97310244,0.7732981021,1.804123882
13.75803429,0.7559865198,1.804123882
13.51887475,0.7407759357,1.804123882
13.27941828,0.7314400921,1.804123882
13.06366914,0.7305628932,1.804123882
12.88719473,0.7381823393,1.804123882
12.75424528,0.7523403147,1.804123882
12.66077883,0.7709185474,1.804123882
12.59995713,0.7937138422,1.804123882
12.57356054,0.8254076087,1.804123882
12.59995713,0.8571013752,1.804123882
12.66077883,0.87989667,1.804123882
12.75424528,0.8984749027,1.804123882
12.88719473,0.9126328781,1.804123882
13.06366914,0.9202523242,1.804123882
13.27941828,0.9193751253,1.804123882
13.51887475,0.9100392817,1.804123882
13.75803429,0.8948286975,1.804123882
13.97310244,0.8775171153,1.804123882
14.14901269,0.8612696481,1.804123882
14.28206486,0.8478211692,1.804123882
14.37686262,0.8376275892,1.804123882
14.44156561,0.8303635614,1.804123882
14.45246087,0.8254076087,2.164948659
14.4114833,0.8206714309,2.164948659
14.3496496,0.8137295312,2.164948659
14.2590557,0.8039879921,2.164948659
14.13190382,0.7911358948,2.164948659
13.96379442,0.7756089321,2.164948659
13.75826361,0.7590650433,2.164948659
13.52970977,0.7445289824,2.164948659
13.30087215,0.7356071428,2.164948659
13.09469054,0.7347688439,2.164948659
12.926042,0.7420504007,2.164948659
12.79898828,0.7555805314,2.164948659
12.70966667,0.7733349003,2.164948659
12.65154214,0.7951193229,2.164948659
12.62631612,0.8254076087,2.164948659
12.65154214,0.8556958945,2.164948659
12.70966667,0.877480317,2.164948659
12.79898828,0.895234686,2.164948659
12.926042,0.9087648167,2.164948659
13.09469054,0.9160463735,2.164948659
13.30087215,0.9152080746,2.164948659
13.52970977,0.906286235,2.164948659
13.75826361,0.8917501741,2.164948659
13.96379442,0.8752062853,2.164948659
14.13190382,0.8596793226,2.164948659
14.2590557,0.8468272253,2.164948659
14.3496496,0.8370856862,2.164948659
14.4114833,0.8301437865,2.164948659
14.42047706,0.8254076087,2.525773435
14.38140098,0.8208912058,2.525773435
14.32243658,0.8142714342,2.525773435
14.23604655,0.8049819361,2.525773435
14.11479495,0.7927262203,2.525773435
13.95448641,0.7779197621,2.525773435
13.75849294,0.7621435667,2.525773435
13.54054478,0.748282029,2.525773435
13.32232601,0.7397741935,2.525773435
13.12571195,0.7389747946,2.525773435
12.96488927,0.7459184621,2.525773435
12.84373128,0.7588207482,2.525773435
12.7585545,0.7757512533,2.525773435
